# 3D point list with one line of data per point:
#   POINT3D_ID, X, Y, Z, R, G, B, ERROR, TRACK[] as (IMAGE_ID, POINT2D_IDX)
# Number of points: 329, mean track length: 8.1668646080760094
13917 8.6794450282091766 2.1438280274080674 21.931393937747735 210 199 179 2.3771770116844344 70 254 52 276
34668 4.753361448776583 -0.86364730779533694 10.119416655521409 198 187 165 1.4662120386561579 29 301 55 342
13915 6.1494087111194835 0.64286228978993043 6.467200604883196 217 206 184 1.0293433159065168 53 187 52 268
24394 -1.4449198133760564 3.1432721243210771 8.3467443184517176 163 147 129 0.59579562765700345 64 2353 17 2061 46 1511
3641 3.7390926362539414 2.5159241690405461 11.961192953453974 46 32 13 2.7698212539344018 81 2437 82 1245
3640 -0.69405101962201388 3.2743963607490136 8.2169614759478993 145 136 121 1.2173572942587108 42 2294 71 2107 82 1242 65 1173 69 2086 70 950 16 1304 50 1968 40 1111 38 1246 37 1746 30 1500 39 1564 11 2210 35 2150 54 850 52 1433 72 1419 21 1756 58 1213 73 1250 24 1926 57 1219 4 1276 55 970
3639 0.065827552445237789 3.363772870455104 8.3340447084314295 190 153 95 0.84623429916861193 49 2136 82 1239 75 1173
3638 -1.188360224101666 2.4456864847313193 6.5234041996496881 174 158 135 1.5426493594840376 81 2193 82 1238
13911 1.2078821822322687 -3.040559111264189 12.182313611461925 0 0 0 1.413729017801562 33 28 51 64
3636 0.076432292481763434 3.3676582873387519 8.4897780156883318 105 79 62 0.61054007667464594 49 2155 82 1225 47 1446
3635 -0.60176742126176908 3.2303518605342751 8.334219237466705 186 169 151 1.1893429094591979 49 2100 83 999 82 1223 71 848 75 1188 47 2501
13908 -4.8303898112992485 -4.3965614971173874 13.153511423839536 218 206 188 1.686212970880723 16 192 52 218 23 246
24384 -0.71413932350346954 3.6234351186584899 8.3307486846832983 234 227 209 1.5109245459288543 77 2197 64 2270 80 2055
3631 -1.2216304175199413 2.2180708192781382 5.9992634648378065 168 151 133 0.20988324358071075 82 1210 50 1363
3630 -0.033424593013448856 3.3007628817405572 8.0814973795471978 188 150 89 0.76231937511021408 71 1987 82 1205 49 918
13903 -3.2595111874296747 0.81686183687423586 12.969279337172431 134 121 104 1.6169106382959475 11 335 30 256 39 353 52 195 35 541 36 403 23 322 73 609
3629 -1.900004153640005 3.2500488450453155 8.2915483189079975 181 163 143 0.24886652195651388 42 2353 82 1202
34654 3.6500711453094947 3.2711387238515366 11.410103695771989 0 0 0 0.70498664616987372 56 278 58 396
13901 6.0151811004796203 0.45008406226474734 11.982267096035702 214 206 185 0.95557686075485648 50 170 52 187
24380 0.86884778865045798 3.3130888756429835 8.4514131003769677 171 140 92 1.05075740390533 8 2109 44 1862 45 1954 64 2249
3627 0.060606467626357019 3.2219937794802571 8.5656285251606636 156 141 128 0.42062155797747369 71 1218 82 1191 49 1834 47 1621 65 1148 70 1397 69 2140 50 1066 40 1471 10 2066 21 993 58 1831
34653 6.0900092322152624 2.8066339881665421 10.725262252171914 0 0 0 2.7517708757761867 56 845 58 853
13900 6.3104494177277601 0.5755383105019739 6.932219867423548 218 207 187 1.7429922964062199 51 189 52 185
24379 0.5478692821072928 3.2203710409364361 8.5018710657827494 171 155 138 0.68563389706828914 41 1768 45 1453 64 2248 6 1484 29 2676
3626 0.93703940613426606 3.3197979911123605 8.672953391038039 37 36 16 1.4843460229593521 42 1257 82 1185 85 2079 23 2307 58 1821
3624 0.93947124888738121 3.2294262844209758 8.684832809963595 32 33 15 1.0141359609928289 81 2339 82 1176 65 1684 41 1325 18 1771 88 2009
13897 7.5550407647438416 3.9058149911924382 12.22508371592046 134 118 102 1.5545610470311308 11 124 25 960 52 158 72 94 51 625
24376 0.93922352256545505 3.4795833761759387 13.576561221949293 5 2 0 2.6624516467397812 14 1315 64 2240 22 1176 63 2404
13896 5.2721823859996126 3.1319389431275062 9.3210760237796642 50 68 44 1.4209261897700955 50 437 54 168 69 341 52 156 23 169
3622 -0.94218326461185753 3.1887758017159777 8.5961043465933997 88 71 51 0.60653399364551686 49 2110 82 1154 75 622
3621 -2.1764352564607101 2.9035185843764415 8.0518751290793293 180 163 143 1.6915941386772897 82 1150 48 2399 78 2364
13891 4.0299786534087181 -3.8140877702520792 10.527595244630989 222 211 193 1.3482230825282793 33 208 49 177 71 177 83 177 75 160 52 135 54 128 36 177 23 139 68 135 73 118 20 170
24370 -1.8039975672284629 2.4826985615916648 8.1701590831771238 0 0 0 1.9908868377624793 8 2104 28 2370
3617 1.6605938097987689 0.54985095065384404 11.669396619555101 157 124 88 0.084359573509601715 49 1064 82 1129
24369 6.9681730548306238 15.941970289103384 39.080521572744182 111 119 118 0.61304092070271965 14 2419 64 2162
3616 4.1376187206312185 0.84485413636205908 8.5827876858309118 198 194 183 0.82565533896926657 49 835 82 1112
13889 -1.2184807883451139 -5.022762615431156 12.549112606131715 222 209 192 2.1696846399153396 25 157 52 131
24368 -0.13943894879744498 3.0026284257860887 7.4880457286776085 0 0 0 1.8016428986622073 61 1343 79 2442
3615 4.1601930499478472 0.24260380505440352 7.762560350097309 202 193 184 0.040419336935680519 81 1389 82 1110
3614 0.026434179492266653 3.1124601199105588 8.811595251075536 152 157 205 0.68255995208242026 71 1837 81 1970 82 1108 84 1285 87 1909 69 1852
3613 0.68320915770556401 -4.3617758575950081 10.801184289937391 223 207 182 1.6793166315868531 83 1608 82 1101 27 792 76 1580 85 746 40 1681 10 1477 28 1696 64 1991 46 944 24 1385 20 1358
24365 4.0632855646841408 0.12457010312138558 11.84023098006082 143 140 123 0.6831942226155423 45 2320 64 2140
24364 2.6246274675487764 0.17790559960435207 6.445419285909904 219 210 195 2.9167517965542293 18 1663 64 2134
3611 -2.2957849821263694 3.584944551978833 8.2239493133328985 183 171 152 0.7817320232204451 82 1095 76 2094
34637 0.6033245717136646 -4.3677289190058408 10.735867513768911 0 0 0 1.6330257116611537 56 153 73 120
13884 10.843791992883409 -10.20507901001686 34.271996778766145 189 176 157 0.53570471774438166 74 1796 52 91
24362 8.5775143493455275 1.6755290734131849 11.54059991378611 153 139 126 0.2282729357297219 43 1870 64 2092
3609 0.55894728611506816 3.5401609260682609 8.1565076700027177 135 128 112 0.63092935921434701 42 2192 82 1081 87 1860 70 1493 74 2075 50 1892 9 2216 35 2134 10 1903 77 2388 28 2333 38 2317 21 1734 88 1935 7 1533 55 1696
24359 4.4875661262912834 1.054395377027288 9.9110719043797655 188 180 169 1.1752972470585343 8 1964 64 2078 63 1808
3606 0.092796423624566582 3.0846556417991526 8.7728040271370258 161 147 147 1.3373616040578291 49 1847 82 1056 75 802 27 486
13879 3.7126312210601582 0.18796776773391582 10.579409386474802 0 0 0 0.39860027551482069 16 78 54 31
24358 2.1183976557680984 0.17640690304222706 11.1390362612266 166 183 195 0.37605002403628751 64 2052 5 1637
3605 -0.46028058297133134 3.0649009577983084 8.6562129093103337 194 176 153 0.77033886656864248 49 1327 82 1055 71 1414 75 1290 47 1090 84 1058 16 909 74 1527 40 1366 51 2286 58 1313
24357 8.507062795439797 1.4524249358363162 11.893099925800884 205 192 183 0.25960718553871309 61 2339 64 2051
3604 -4.240881753658396 3.1592811100375502 14.106750866084822 58 48 36 1.5766756649426534 83 2031 82 1048 27 1295 59 656 84 519 87 1167 70 2389 69 1363 85 1809 39 472 11 561 54 1288 72 1153 79 2201 15 1906
24356 2.2536128337086532 0.19415837758662866 11.568090621118253 0 0 0 0.71801934302683379 28 1893 77 2345
3603 2.3482161542225084 3.2523401347024001 8.4986160515893552 32 28 17 0.9069763353924688 71 1275 82 1034 65 548 87 792 70 904 85 579 4 869
13876 7.5935721025505911 3.1719509166023614 12.867952357102926 94 87 79 1.0787894226732446 54 51 58 974 11 56
3602 4.3413975823937587 3.5574259486123641 10.132558787248621 58 50 39 2.2554347140522037 42 1027 49 1306 34 621 49 1005
13875 -1.0574114704195792 2.142424165441271 13.904062572365103 78 77 72 1.6909326406369765 39 41 54 39 52 37 72 42 48 37 73 44
3597 -0.43106845785428294 2.2645994971138101 6.184877001273188 187 169 145 0.63027670327829621 71 1362 82 983
34623 -2.5756430054716617 1.40361748579486 12.002522954943851 11 11 9 0.10299841148356406 33 270 55 115
13870 -1.0710118600782093 0.13002365116755635 12.5943642655071 0 0 0 1.3857044376857739 35 15 74 13
13869 1.1389450015062437 2.1273371794234395 12.07979926172621 13 13 11 1.9984927339392833 30 13 54 9 52 13
24348 -1.9286972515799183 -3.2617887307053657 11.123121692857078 204 195 178 0.017359468730553759 51 1650 64 2023
34621 2.2149598978035572 3.1171707348694584 8.3650527003651671 0 0 0 0.28960312621180795 4 63 58 94
13868 -2.8283689166611126 1.5207966854050281 11.80249646743971 6 6 4 1.4497846093929505 54 7 22 4
34620 3.9260180015856068 3.2120537310095112 10.677866651423322 0 0 0 0.067047923632741854 11 138 52 109
13867 0.99669441986574803 -0.27847654703007779 11.074618834130598 38 33 27 1.5690181816672126 74 4 86 5 80 5 48 6
24346 -0.99234397035271005 -3.0638484850846255 10.760494228243518 170 160 150 2.2773853998760405 41 2103 64 2019
3593 1.6448583005897541 0.056830820132218449 4.5415707351859256 132 89 60 2.5351797045006252 42 1548 82 909
3592 1.9440995376668229 0.54701813221073903 12.147286683164003 211 218 202 0.85185667802719922 76 1898 82 904 75 2258 16 1271 40 1482 36 1884 58 1676 56 1495
13865 -1.1225059128101995 2.6918730409337916 12.352457485511149 28 23 19 1.1686855488213146 53 5 70 1 72 4
3591 3.1360023094553893 0.57477116955799146 11.961860550856661 170 182 177 0.96444088200494626 71 821 82 903 75 1078 59 1599 84 1561 69 835 16 848 85 447 74 1616 53 1435 39 555 52 616 72 623 36 595 10 1212 28 1581 31 604 44 811 18 1703 14 648 8 952 64 871 17 1258 32 1978 46 738 15 795 24 651
34617 1.119692207695635 2.5960174984346076 11.335261258377718 0 0 0 0.10789096645122317 56 46 58 44
13864 5.9399009099312998 2.7356681458330971 10.76506822416251 59 72 54 1.2302449382624763 54 1 65 4 72 1
3589 -1.6371534125558496 1.0568881380433988 13.351932816445499 5 6 3 1.0487172272497773 83 1140 82 887 49 1627 75 962 84 912 87 659 4 677
3588 -2.5190474356587331 0.7641420872322916 12.474209131260626 43 40 25 2.277440476638815 81 715 82 883 27 637 81 1833 70 1719 84 1568 40 1175 38 1191 36 831 19 634
34614 3.3355292910457339 2.0982904932877449 11.361703837787639 0 0 0 2.1790223628775256 56 18 58 18 73 17
13861 3.6464038897199398 -4.1643029301561505 10.288091815284718 218 201 183 1.4555100118119941 82 588 72 1632 49 520 71 737 83 548 20 1356 4 629
3585 -1.1737082493199791 0.75452945952341777 12.064524633152695 5 5 4 1.3639984104769496 49 2181 82 870 65 1090 84 1186 4 1190
13858 6.3227508535828738 -0.59932618343175981 11.070089662608645 219 208 188 0.90719713649029898 37 1486 51 1547 44 1598
3584 -1.30049501005159 0.79626073473784009 12.884909331131217 40 41 36 1.4173107240336411 89 752 82 869 75 1809 83 1131 49 1422
24336 3.8206046101287159 -1.3897274726689406 11.340657352812592 0 0 0 0.9659732963622637 26 1535 60 1262 61 1633
3583 2.7306586250307978 -0.21553257296941267 11.845194089894523 62 48 37 1.3495504409552932 49 1077 76 1288 83 832 71 1510 82 865 75 1402 47 1362 59 1420 42 1160 87 1182 35 1089 79 1396 10 1613 28 1391 23 1881 34 1138 19 1207 2 1523 44 1171 60 1232 17 1349 13 1402 63 1081 46 933 15 1144 20 1682 58 1723 73 1687 88 678 48 1150 5 1616 7 653 56 1010
34609 0.25631688949150194 1.6997999346293957 7.7760625075666869 0 0 0 1.8860757124120431 36 5 85 1
13856 -3.3634303528427618 -3.6886447877210231 12.814278479637336 165 153 141 1.2120099662254336 54 1521 72 1718
24334 4.4274032020715595 -0.35295210388742543 8.0652995591368217 194 185 168 0.17117893730407546 74 1894 64 1964
3581 4.3723283237708985 -0.0082059628169914699 12.019004981105658 209 200 187 1.5908610581290519 83 542 82 859 71 514 49 510 65 492 27 747 87 478 86 584 28 1832 19 696 2 1291 77 1806 18 2023 48 1153 8 1288 13 749 61 838 15 776 46 520 67 1726 7 478 3 504 6 590
24333 4.3660309728423936 0.0062736585816708093 6.8690651531292044 221 211 199 1.1284079471847679 84 1544 64 1961
3580 3.9883210523362354 -0.13898388774907305 11.720688128003669 68 58 46 1.3897759230737254 71 1416 27 1392 83 1553 85 2070 77 2394 41 1095 14 1912 67 1780 78 1944 3 1095
13853 5.9852407875348979 -3.5865512627766454 15.276923223202051 199 187 171 1.8124971492082351 39 1721 54 1414
3577 -3.3082364991478355 2.1411461932704099 13.011900662781224 8 7 3 1.6087439864144457 82 843 65 640 87 1149 29 1176
24327 1.0466379776299939 -2.5113119716046701 9.8615333159685434 173 166 147 0.51021048332165941 76 2082 46 1409
3574 -3.072123749324291 2.0860198145986839 12.178924124077417 47 44 37 2.0421367732051077 83 1385 82 810 75 1352 27 868 58 2005
34600 6.3347876347533498 -0.25192047606169948 10.452300748424038 186 175 155 3.6732812183736998 23 1886 56 1411
13847 4.177981182742486 3.9654495597534627 11.032938820859597 39 35 33 1.4666333277474759 54 110 52 99 72 109 73 206
24325 0.90810400610132314 -3.1330924029744214 12.541174873013746 157 154 137 2.3684329631345249 43 1989 64 1938
24321 5.3384304605448429 2.0042951632656241 11.478329289195042 149 140 131 2.1480386412278207 60 1527 61 1750 29 1411
3568 1.0646532127553683 0.72014968345772723 12.239638293009648 67 58 41 1.8442208056663105 71 1425 83 1825 82 766 65 1574 84 866 87 498 16 1960 85 502 53 768 88 1073
34594 -1.0676526530044665 2.0382913688593232 13.738868456201526 58 58 51 1.6866666395717049 57 40 56 48 16 36 37 39 70 33 53 40 9 42 35 48 72 52 77 36 19 36 58 66 20 35
13841 3.1054761797898078 0.94997396378249954 12.011308536763233 118 110 95 1.5574066951562535 16 1245 89 1682 85 1552 69 1635 70 2234 9 1676 27 1724 52 1308 72 1919 14 2857 8 2021 13 1547 58 1689 57 1827 66 1109 56 1686
24318 5.9989241500135773 2.2135309185122121 11.756917685337006 99 92 84 2.0976483148432199 61 1716 64 1902 32 2407 29 2218
3565 -2.26158825888422 3.0534116064980372 8.560976324974499 139 123 99 0.42285467616053979 83 1111 82 746 65 991
34591 4.3209967594781693 2.8113183760846217 10.047781546791768 39 53 32 2.9774793794589405 51 1889 53 1595 56 847 74 1099 50 726
13838 3.9562186775173771 -3.9789426038785023 10.499329170601152 98 92 84 2.1963455149374411 47 2002 40 1677 39 338 11 1623 59 1386 58 1451 12 799
24317 7.1725007770292306 2.5005184052629308 11.671161937829925 182 171 159 1.1839238383092583 84 1096 64 1895 21 1690
34590 2.0535117183519964 2.0865605684948618 12.204465446993709 29 24 20 1.6720340667427045 36 1115 70 1822 33 1081 38 2197 54 1830
13837 4.0043100101306282 -3.5327326597312578 10.610764529057938 211 199 186 2.1176570765260405 76 1648 59 1549 54 137 71 209 42 184 83 178 49 206 82 167 75 167 47 202 27 171 33 209 39 148 11 187 52 128 72 205 36 145 23 202 26 188 34 1480 13 1408 68 133 73 116 24 172 20 171 57 107
3563 -1.6179859758417277 2.9776259493448243 8.7058421002262065 123 101 80 1.0518330827015905 83 657 82 703 75 886 27 430 85 641 33 990 37 983 68 873 73 768
34589 3.6475144856848409 -0.17399336612381294 11.679073920762361 76 63 55 1.6030250818802527 87 742 85 1602 74 1223 40 1727 26 2199 81 1592 89 1925 27 1204 59 1409 69 1495 9 1575 36 1886 28 2290 19 1543 86 1609 2 1611 8 1719 8 2360 64 2111 15 1185 68 1046 58 1593 20 1084 88 1162 12 1270 7 1268 3 1093 6 1181
13836 0.30464056984365256 3.2371878195101629 8.4671331117891349 106 94 82 0.74538752053549739 80 146 81 238 89 220 76 224 75 299 59 309 33 427 53 340 9 235 35 659 11 486 54 326 30 179 39 384 52 371 72 385 36 473 79 223 86 262 77 238 28 156 23 533 26 459 34 328 19 343 41 223 2 239 31 256 43 225 18 382 44 202 45 277 48 248 60 376 61 417 14 272 8 242 64 220 17 409 13 407 29 165 32 276 46 167 15 319 1 347 67 305 68 330 24 608 78 251 88 205 62 345 7 222 12 296 5 207 3 204 66 209 6 195
3562 -1.2137496686088458 3.2120501545948539 8.2893013767926629 185 167 147 0.6834941751263538 49 937 71 849 82 667 83 1003 75 1187 47 1019 10 2092 40 1795 55 1244
3560 -2.2320413515517963 3.0520561453429353 8.4525098675385273 144 126 106 0.94170314446870051 83 1076 82 646 75 552
34586 -0.95142060720936283 2.8156322474442095 9.0259521936836773 200 188 171 0.89812495500549583 16 2261 74 1565 51 1891 25 1451 53 1162 30 2415 39 1275 52 2379 36 1016 23 1486 26 1463 4 1615 56 857 84 1299 58 1253
13833 2.9788963742530306 0.36355905776834596 11.944651797236499 116 123 117 1.8120233837902486 69 837 70 2019 53 1450 30 2081 35 1700 65 723 85 1320 83 1144 87 1159 70 2020 37 1151 53 1198 39 1593 54 1023 52 1983 79 2085 14 2353 42 1415 8 1985 63 1749 1 914 21 903 21 1508 62 1829 56 1483
24312 1.352759998079988 1.1797732688115821 6.6269166075024231 70 75 59 0.18828533897474004 53 1681 64 1861
3559 -2.0805758991192254 3.2572400612104908 8.1278696488485256 123 114 99 0.91735658610936055 83 585 82 636 65 567 74 943 75 820 50 853 40 906 37 894 58 801 24 1888
3558 -2.0284341576928053 3.2860168472533844 8.0610393339970923 136 137 131 1.3669542560103265 42 958 82 634 47 1684 40 1813 83 2058 37 1201 30 2555 23 2246 21 1236
34581 3.6653865450101031 0.73484636342262977 11.886188385261907 15 9 9 2.0613708032864175 5 1204 66 567 65 1584 74 1624 50 1097 40 559 89 1349 18 1708 56 1462 55 1590
13828 7.1227971966884871 2.6389707153235942 11.971636084253173 56 50 48 1.8399937676604432 35 79 87 65 70 55 85 67 54 52 10 63 19 58 41 57 2 29 43 64 45 62 48 74 61 56 17 66 13 63 29 67 63 73 67 49 62 81 12 56 3 36
24307 -2.6170581256303822 0.61435868221994094 13.359894392327849 0 0 0 0.075122610333310302 14 2006 34 1611
3554 -3.5534285736479454 1.469002452269472 13.130032976897551 60 56 47 1.0346981680616398 80 2110 82 609 87 523 70 700
34580 0.25892105582418617 -3.2291057845738123 11.518219187716262 88 84 73 2.0575013563257518 21 1956 70 1988 56 1705 81 1665 27 1524 20 1536 4 1368 48 2369 55 842
13827 -4.5712156244827566 3.2650252006364155 14.078095678140274 47 44 38 2.5920298075258543 54 501 53 1179 39 2187 52 2209 72 2139 30 547 24 1106
24306 -1.8587087241584808 0.84397368268035255 14.170195508394047 49 46 41 0.10228880710869685 14 2002 64 1827
3553 -1.8659506061979676 2.1459483644445352 13.378982909491867 49 42 32 1.6130182907505723 76 387 84 396 33 228 77 768 23 582 56 750
24305 0.43955073922085397 1.3503987667013169 14.044014830733021 0 0 0 1.0395429208809124 14 1934 31 2063
3552 -1.7265274187716801 2.007646502227121 13.34220496857775 6 2 1 2.4268152294886156 49 453 82 591 65 435 47 587 16 548 33 636 68 789 4 409 5 581 80 315 3 312 26 527 56 546
34578 6.9462634617849579 2.4967307437132482 12.052305693262342 48 41 28 1.2398436321174264 25 833 49 764 13 687 48 1446 56 1501
13825 2.5954777806709526 3.5188779208705476 8.1178804842831536 10 10 7 2.4000514521134915 11 2041 54 1103 38 1025 53 1778 39 1444 26 1510 24 1809 58 1922 54 1323
24304 1.9353484086419721 0.71921582198380551 4.7215549949507798 23 15 7 0.69792752697144567 36 2306 64 1814
3551 0.5990336490147945 -3.7304549824855489 11.096523658623388 166 150 127 1.6412145251463504 49 517 82 586 75 513 27 288 47 580 84 905 69 573 85 752 74 819 38 600 51 572 25 882 53 518 68 555
34577 4.0935186667754708 2.0683046406630536 10.846336763412948 117 114 117 1.9786323753895039 49 1915 72 2094 84 1272 33 1594 26 1418 73 1852 56 1499 42 2022 74 1211
13824 -4.2125627486916324 1.8287826139605645 12.950744925852645 3 3 2 2.2821338951760857 75 2249 84 623 51 1335 25 1529 53 672 50 684 39 1353 35 782 54 693 47 275 50 372 51 426 25 553 69 520 52 315 73 899 11 276
24303 6.1836335688236037 1.5930189222075688 11.895360219864273 188 180 169 0.53475996771818213 41 1660 64 1811
3550 -0.46478671642220215 -3.7303081110569574 13.582090835864705 139 126 107 1.5616425163074519 89 394 53 1423 20 714 66 601
13823 -0.35576674921110818 2.9129753400131695 8.9974982386705129 112 100 90 0.99463635790428695 30 1108 39 1112 35 1286 54 1303 38 2058 74 1481 52 1160 72 1525 36 1419 10 1142 21 1062 24 904
24300 6.6914529777056115 2.0278103280647555 10.623590982584737 155 143 131 1.6729314557990262 44 671 64 1802 13 1015
3547 5.0145136313261833 3.3215985966784691 9.3366062467873512 231 217 189 1.6369870317480337 49 633 71 531 82 556 65 522 84 513 87 603 70 579 69 605 16 947 85 554 50 858 40 668 38 628 51 619 33 551 11 645 35 747 54 425 52 678 72 677 23 997 26 473 2 1117 31 1641 43 2499 18 1249 45 1001 43 923 48 1061 64 1047 13 1154 29 891 32 1205 63 1307 67 935 24 611 57 829 5 1145 3 715
34573 0.31262652495258242 -2.7056047511302919 10.408330876061816 25 23 19 1.9049644958309926 30 1350 36 1206 56 462 37 1527 23 1757
13820 5.1941187911373685 -0.316619814043059 4.0709384090548246 207 195 179 1.2888972274924053 53 1340 54 2068
24298 8.3491235556222954 2.4994442887275334 12.450250967899281 159 147 135 1.5165181330641082 61 1167 64 1797
3545 -1.8548733770800347 2.2819563143007828 13.52305901238725 13 5 2 2.1405027093715856 71 441 76 532 89 540 82 524 75 983 84 547 16 779 74 719 50 637 25 766 72 821 79 543 77 492 18 723 46 1691
24296 4.449598908289806 1.2323928192362121 12.252132855256253 161 155 143 0.12166900028612587 52 545 63 1797
3543 1.0041120230787282 2.2498992407342504 12.597930189348032 43 41 38 0.89154066050941783 89 2198 74 1891 5 1887
24295 6.5418105430376681 1.9226208201654096 13.391727343909192 0 0 0 0.853114493768514 9 1817 69 1115
3542 4.5393874209644132 2.5984980996408837 10.913415996724526 22 25 16 1.5062205266317086 49 498 82 511 75 638 59 759 48 1475 67 1090 58 638 56 479
13815 1.1402940251149625 0.83986676651559833 9.7504164968438989 0 0 0 2.3787084948515798 30 1827 39 1896
24292 5.34264061587937 2.0076145529228495 10.734223316737145 0 0 0 1.0142399437748653 48 1799 61 1748
3539 -0.409795228189966 2.7641225777015492 8.9412731854160761 188 172 149 0.87432382155939525 9 679 77 1369 48 1033 67 1000 81 700 4 932
13812 5.6724871405997677 -0.7941504777823617 8.8910793978396434 197 188 171 1.5769716187705802 49 1484 54 2041
3536 -3.7000737344054611 0.70170664953243334 12.784470255607289 9 9 8 1.4920100486027834 82 401 65 307 84 309 75 383 43 565 18 416
3534 -3.5516313060688502 1.1075482900911375 13.202734334050342 7 6 3 1.7199941683050319 76 864 82 392 75 762 84 427 65 802 51 1671 89 1579 82 1353 28 2082 23 669 46 1122 20 608 12 927
24278 0.41116473608617732 2.9539701122358402 8.986493372342478 126 135 134 0.52136692956381314 8 2043 45 1407 64 1639 17 1661 13 1610
3525 4.2530839831238056 2.7197125679088385 9.9231363431569246 63 74 58 1.2573156754788954 83 445 82 360 65 427 38 228 37 368 25 569 57 505
34551 7.2356073289395244 2.4982891067932385 13.09555633960156 0 0 0 1.0064917532416542 9 2293 69 1811 16 2334
13798 0.83971270546581811 3.2462280420531422 8.675002915064292 110 117 114 2.262968072902023 85 1086 54 2012
24277 -2.1803521457933419 2.6737494404443019 11.274648182766466 0 0 0 0.63502072316992653 61 1350 77 1949 13 1652
3524 -3.0432005687080941 1.2398911302066244 12.956652209155862 60 57 48 1.5957550403336134 42 1698 49 1342 9 734 49 2205 19 1158 41 796 2 815 31 665 18 1246 44 735 48 563 60 759 14 1284 8 412 13 694 15 1700 67 1013 20 990 78 800 88 1234 7 441 5 709
34550 3.2172098112290093 2.2084855511413926 11.805801074583018 0 0 0 0.88820264350050937 73 1873 78 1930
13797 0.47743975295515945 3.2455957319417386 8.4175048745838374 204 189 170 0.37323573810682809 37 1939 54 2003 72 2277
24275 -3.2141703561155013 1.2991519634359654 13.650816173629197 90 84 73 1.1108384162883085 31 2252 45 787 60 1911 64 1595 29 585 32 1534 63 1311
3522 -3.7202192013145217 1.5191743045026729 13.307225725808593 2 2 1 1.5507323967030666 71 507 82 346 27 952 65 504 87 271 70 1888 87 1838 16 398 85 275 40 579 38 276 51 526 37 411 53 386 30 325 39 232 54 279 52 310 72 290 10 446 58 567 58 1201 73 514 57 992 56 525
34548 4.7963246796266104 2.1554637732816428 11.979812245014958 55 51 40 2.3135174003643662 25 1444 56 1656
13795 0.87652581445739775 3.236269634653822 8.4776105761690452 218 181 122 1.5528857952024973 39 2022 51 2260 54 1999
3521 4.3260476106847969 2.927211616197861 11.40508336330377 86 83 79 2.318877917791625 49 437 71 585 47 352 65 1234 59 767 69 1795 74 2152 86 1708 77 1309 34 1733 40 2023 19 845 87 1549 83 2015 40 1474 2 862 48 2153 17 1782 1 1175 67 1986 20 662 57 1270 12 1349 5 1877
34547 5.4653965188646048 1.1030863551647394 8.3484094971161387 0 0 0 1.2891787419397827 12 1205 82 1610
13794 0.86950590855430487 3.2624275314570252 8.6078111439048328 206 192 175 1.1959457422390098 30 2387 54 1998
3519 -1.2790952945222278 2.9230315027464546 8.8858454342025652 76 78 75 0.77385241343071642 80 405 83 304 82 299 75 452 27 222 84 365 33 645 86 336 77 305 28 274 2 361 48 380 64 216 67 328 68 470 73 583 57 367
3518 2.2075672102793558 0.3909108511945093 12.086800451059263 214 217 202 0.95203826875913711 49 370 82 287 75 361 27 294 84 375 70 378 85 377 33 568 9 389 52 433 72 587 36 406 79 537 34 365 41 402 2 414 31 436 43 438 18 531 45 433 48 629 61 583 8 431 17 464 1 501 21 437 68 566 73 377 78 592 12 462 5 658 66 402
13791 0.7760001300918522 3.1074357341723955 9.0464808138163519 103 106 105 0.24746841136637218 39 1545 54 1987 52 1017
3517 3.2483558527685159 0.16835394976538454 11.738516793497757 216 204 186 1.8909526287618328 83 258 82 286 75 355 74 312 35 326 8 326 21 454 64 1280
13790 0.55046254037527231 3.0382883794783453 8.7246282911378632 209 194 178 0.95286662107926601 30 2252 53 1627 54 1986
24269 -0.28774355105420163 2.5826302630895501 10.910646421213944 4 0 1 1.3497999368429394 8 2230 82 1695 45 672 64 1555 46 298 67 927 28 2051
3516 -1.4212439483449917 3.3691901849502783 10.454902470873375 193 178 155 0.91386073017169767 81 314 82 277
3515 0.63038408265196333 -4.4295074289400711 10.816029748752035 161 144 124 1.4954174436361505 49 569 82 272 27 286 65 497 87 1379 83 369 70 2390 69 487 50 1473 38 525 37 302 53 358 70 781 11 603 16 675 35 852 72 838
34541 6.5470149416469141 1.3081584484673445 10.456703076439483 164 149 133 1.1417366961365254 87 1844 56 1621
13788 7.4879958650129739 2.7630107895984288 12.083221175270277 181 168 151 1.5397538926679932 53 1580 54 1979 72 1343 36 1425
3514 0.68868077409661776 1.4886736865949801 12.655774643159276 111 100 78 2.1513515050148397 49 363 71 195 83 271 82 259 75 272 27 135 65 281 59 121 84 266 16 520 34 234 56 769 23 857
3513 -2.6651842686796301 2.4253521831283553 12.311636765468466 37 30 20 1.6790151198243244 42 74 50 76 40 83 33 77 25 86 36 120
13786 0.4637837202451533 3.2091565967094864 8.5087797451900009 167 151 135 0.2013858424331624 39 2046 54 1968 52 2078 30 2261
24265 -1.9738158683300542 3.0529595476853593 8.6140417350930676 158 141 123 0.20745941661327541 44 2183 64 1503 88 988 31 2491
3512 5.5322745192448011 3.3172041367752714 9.1032771397053747 200 184 169 1.4543957750542371 49 254 82 230 65 230 69 238 51 238 33 299 54 198 26 244 19 406 41 365 18 468 24 220 12 348 3 318
34538 4.203543010436146 1.0368194448356471 8.422388826439791 55 47 36 0.54252693846999756 10 613 56 1613
13785 0.43649066942973547 3.1652968779187063 8.5373223952866653 184 167 151 0.43926933095117232 35 1830 38 2106 54 1960 52 1425 55 1111 25 2257
24264 -2.2860018190452553 2.9679031084575955 8.6117604593970238 188 172 156 1.292783070791921 31 1945 64 1494 29 2597
3511 5.758578594229343 3.7273514229398512 9.0908941615960757 125 118 111 1.2712402835138135 49 230 82 226 84 246 87 207 70 223 69 245 16 227 85 251 50 224 51 174 25 165 11 244 35 165 54 176 52 228 72 258 10 211 23 226 26 175 19 342 2 355 48 388 64 504 67 353 21 191 24 196 20 307 12 289 5 343
34537 5.7901049278607379 2.1769084324218642 12.688710084165631 0 0 0 1.7384976834301717 51 1997 69 1951 70 750 56 1612
13784 0.38330130673983737 3.4496394868165594 9.7311105336687174 199 190 174 2.5099682643296415 39 1991 54 1950 52 2131
24263 4.4288127863018074 0.70662791531464575 10.625397310414296 174 168 145 2.1856698820905058 65 1117 83 1824 58 1690 4 700 5 838 56 531
3510 -1.9963152121527019 3.2912324519618892 8.0311719799113792 93 88 78 1.4832706549458115 76 204 89 248 82 222 75 282 65 147 59 256 16 214 80 187 69 179 74 178 50 321 38 222 33 321 37 230 25 389 30 192 35 399 23 400 26 394 41 235 2 244 43 147 31 187 18 230 44 239 45 166 48 235 60 217 61 246 14 179 17 214 13 222 32 138 63 161 15 153 1 124 21 288 68 205 58 144 24 354 78 229 88 129 62 188 7 235 3 301
24262 3.5049590743017247 0.65919374889466675 10.858754075102956 176 168 157 1.4157876095433237 14 1425 69 1238 16 1230 29 1844 63 2363
3509 0.11936727710686161 3.2814066103325317 8.3724573092715584 179 159 127 1.924603165148326 42 227 82 217 75 318 59 223
13782 7.7157858210737853 -2.3792077975606443 15.31553133471011 183 172 152 0.61600194778484407 11 1589 71 1596 54 1941
24259 -0.70821231031272458 3.3075816739260899 8.151187872413864 116 124 121 0.39904290643627754 48 2364 64 1416
3506 2.1355184295876923 0.34665623661865685 12.084247367849267 219 221 207 1.2534380486531895 81 180 82 181 27 159 65 135 70 183 47 205 74 193 50 168 33 255 53 173 30 150 11 206 35 189 54 218 52 194 72 203 36 231 10 263 77 210 80 193 86 217 26 195 34 116 19 168 41 214 48 192 58 156 73 233 24 208 78 272 57 159 4 171 12 239 5 163 66 156 56 197 55 171
24256 9.0582922485763451 2.1416299629597151 12.041452466915775 159 146 130 0.44121486341886751 17 793 32 948 48 1211 67 651
3503 -1.4501254041235208 3.1361319316716783 8.6306334379710314 193 181 157 1.774893166899042 80 148 82 165 75 1484 86 266 77 989 80 1119 2 1152 64 939 78 647 88 503 7 698 12 847 66 1373
34529 -1.1236863680747393 2.8634956432299705 9.1969496386977667 16 14 8 0.29810234125057755 4 1244 56 1587
13776 -3.2538299335327943 2.3100848155801366 11.869873258450772 14 9 6 0.94832869332739156 35 2214 54 1909 26 799 73 1454
24255 3.9129347614864161 0.61685066834620905 13.104496422534137 147 144 140 1.329305310307213 45 714 64 1369
3502 5.3874740731675006 3.5595641677221184 9.3150104245209508 23 13 14 1.489045876949564 82 148 49 161 84 163 87 162 65 146 70 221 69 241 16 229 85 231 50 225 38 244 51 245 33 183 25 337 35 269 54 250 72 368 10 281 19 153 43 112 21 274 24 325 5 145
34528 -1.4854354652484758 5.2982674799495042 14.869441796522993 20 24 8 0.22146522939296337 47 1480 56 1582
13775 3.4655724965366024 1.4628784382380229 11.426621962935656 184 171 160 1.6846557704635874 11 2008 70 1106 54 1908 39 1758
34527 4.4520752177984928 3.0186519555888345 9.6515510437691638 0 0 0 0.27877579836371091 57 1566 72 2248
13774 -1.0803657341866304 1.9974965182159936 13.170963373656392 19 15 11 1.7579409275861686 11 1935 54 1907 36 1682
3498 5.7613629522538421 3.4870235108012597 9.0599853555621674 253 253 243 1.5837291403098759 49 73 82 110 65 100 84 85 87 68 54 79 23 105 19 89 48 105 64 118 17 102 2 106 67 103 24 111 20 92
24249 6.0911756202488174 1.365501965798928 11.38729761478557 188 180 169 1.0701298809719617 45 605 64 1355
3496 0.33442220919141419 -4.1113462430431627 11.325661207727055 207 195 169 1.4844751372441902 49 89 81 64 65 180
24247 4.1742292853393757 1.573839444897434 10.625856998911576 184 175 165 1.555735939294431 8 1202 14 1405 32 1161 7 485
3494 1.7370693573393674 0.68515339311203594 12.122326169988051 84 90 54 1.0922236670663681 71 92 82 79 75 106 47 95 87 98 70 86 69 82 16 85 85 93 74 84 50 92 40 96 38 100 51 114 33 95 37 95 25 91 53 84 30 73 39 92 11 92 35 93 54 84 52 86 72 100 36 84 10 136 23 106 26 98 21 91 68 111 73 84 58 79 24 114 20 86 55 108 22 53
13767 4.138343063813136 4.648684716317141 12.425580382738209 70 63 53 2.0022940630411017 25 1266 54 1866 55 1286
24246 8.9903575368787507 2.4389554339187112 12.174299581497936 155 143 127 0.42070865836480115 48 794 29 1391 62 1250
3493 5.4160648856482165 3.3926524188124829 9.0587150130759095 249 243 231 1.2322618741522144 49 105 82 71 65 101 84 91 87 90 70 101 85 87 5 101
24245 9.6783433642454888 2.5898932459755146 12.142180516744011 191 182 167 0.53930971925809346 48 1175 64 1326 29 1389
3492 1.5347338173186762 1.634186435258185 12.250446694959177 219 212 186 1.4694045446127328 49 68 83 77 65 73 59 67 84 79 78 65 88 63
34518 6.4323307681154729 2.3743672926297372 12.094234624993488 96 90 79 2.1892929540056616 39 442 56 1539
13765 7.3551992970913025 3.9022361922587394 12.633389148536551 86 76 66 2.4248629950805065 35 930 54 1861 72 2305
24241 0.55897846052949729 -3.4541454777631908 12.406601542290348 209 197 181 1.6925779928808351 79 1903 64 1294
3488 1.8917603781513219 0.097356098520757064 11.488064766747392 214 206 180 2.1831212741770294 42 23 82 19 16 28 39 25 54 28 86 27 21 25 48 25 22 19
13761 0.67058709627642732 1.9320081933577871 12.117769340859414 132 134 131 1.6563740809785532 39 2204 54 1844 72 1862
24240 -1.7868151598629425 -3.5685270866146279 12.474987359090045 170 158 145 0.72854192079296021 43 1793 64 1289
3487 3.7241110352546771 1.1906413968858873 11.595944692179573 33 26 20 1.9362399796245027 82 15 75 19 47 23 71 30 65 22 84 26 87 30 70 22 69 28 85 26 74 31 68 32
34513 3.3689427794779436 0.4015699378320976 12.200957699497868 229 212 192 2.560655984062937 59 1614 56 1485
13760 1.7939045469343324 1.825533918099731 13.779228534036356 246 237 232 1.2335962863385035 53 1146 69 1083 86 1848
3486 1.4625899039971295 1.3154655404674154 12.811291458115592 165 161 151 1.9302014505564078 76 14 81 6 27 6 65 6 85 9 22 6
13759 1.6672981567152694 1.6819502875026524 12.390191044421686 218 208 197 0.60576395147202411 38 1902 54 1837
3485 0.35285639149043135 3.2173058151475202 8.4376701309873336 174 158 142 1.871265211243627 49 4 80 6 84 5 59 8 85 3
34511 4.5767108843275839 0.18522137931169452 11.304398230451422 0 0 0 0.53526363260574561 50 779 68 829
13758 2.9794523875184127 1.4503096057803684 11.945533979518624 139 140 144 0.16607887850455419 74 1144 54 1832
3484 -1.2690992155551848 2.9528220831308594 12.985191044410227 3 3 1 2.4018761557299619 83 3 84 1 87 2 48 3
34510 10.16683010605621 2.6025089294651793 26.41773050292479 214 201 184 0.058890820972250277 69 1081 56 1479
3483 -2.8962545122640808 1.9790288666364757 12.557956364296187 27 25 20 1.7261016666601556 65 277 84 203 87 198 70 118 47 221 69 122 16 180 85 148 74 189 50 182 40 218 38 141 51 169 33 148 37 185 25 236 53 147 11 285 39 329 30 232 35 288 54 285 52 325 72 222 36 727 10 189 23 236 26 1103 21 154 68 293 24 193 55 259 22 77
34509 1.4387383177925717 0.8428179642838588 12.627383633044079 0 0 0 0.57114844605506554 57 646 60 1639
13756 7.3367116175897031 0.66066180750456127 11.468601441327293 219 208 189 0.059669463697108668 70 2046 54 1800
3479 -3.5408732123521665 -3.2231319799579685 11.611708574278202 148 131 113 0.055417815156968711 80 1663 76 1808
13752 2.820303604263827 0.62238451435229925 4.0248708502822952 16 14 15 0.19488537758561419 85 1185 54 1789
24229 8.5107298126017081 3.4470406254989499 9.9303111078146777 208 195 187 0.11675842221288953 48 631 64 1211
3476 -1.4877881500238437 2.3542277864117716 5.6927809417903603 194 177 150 3.0860949304546774 49 2217 76 1471
34502 -4.2710709850632638 -1.1889141739402012 10.747504690208348 0 0 0 0.39167097566306985 9 2025 66 854
13749 6.3451296722315718 1.3010081226430836 13.719048443026276 208 200 189 1.4459847430487023 74 1686 77 2364
24227 6.9039330179016227 3.2341764783687492 10.165637284841267 183 175 162 1.3336700356295494 64 1192 67 773 5 742
3474 -4.2296437050947082 -1.1091263895716916 10.45402410343355 165 150 122 1.4559757234592092 59 204 38 303 33 165 35 333 63 2167 77 185
24226 -1.2592174626433521 1.3756405052831522 13.101881348136747 15 15 13 0.65159799843872113 31 1977 64 1185 88 1698
24224 0.12958201657587687 0.99842323589603099 12.71977815986561 0 0 0 0.025738517462454986 45 1868 74 1603
3471 -1.3026507535931646 3.0562536640123401 8.6320163183051708 206 190 167 0.39391846338499947 89 712 76 766 42 613 59 1060 20 922
13744 -0.35476794600770178 1.7813677005728239 7.5200608389788295 116 107 98 0.51175962995240853 30 2650 54 1752
24223 -3.4918696555736708 1.1167964215395256 14.081415544652788 160 157 150 1.2702228430109237 43 2587 64 1159
34496 2.9749055723508153 0.081965914499492393 11.614620252664499 239 228 208 2.0228094792974303 73 1202 56 1419
13743 7.1310873258640175 1.6240333516876881 9.2962795488226568 162 149 140 1.8146910580769153 11 1299 21 1627
24222 -1.2202158263091729 0.4508617834354241 11.222868374503362 150 147 138 1.044237169172556 36 1919 83 859 4 676
3469 0.83991936262609679 3.1491364906484089 8.8517455125838058 139 135 126 1.5117654136499172 81 1124 89 1093 76 1146 49 1839 75 807 47 2144 27 484 59 988 79 759 81 1121 86 644 34 1181 19 843 48 1345 61 1974 8 2042 67 590 88 888 4 1680 5 761 66 513
34495 4.382936923354908 -0.18800824733949198 9.5158046490381842 211 200 182 1.0222280655673088 57 1476 56 1418
13742 6.1448514051355581 2.3237405204521329 12.057044681110856 116 110 96 2.2653388581566691 35 822 54 1741 52 1256 24 1599
24219 7.0307207323438092 2.7057736109959878 13.796463037842051 0 0 0 2.1880979225671888 43 831 61 758 64 1150 64 1147 28 682
3466 5.5881343013489087 2.402804080852547 13.186710088964666 114 110 100 0.83726234244763853 81 2037 75 2032 71 767 65 1457
13739 -0.46468347725242926 2.6739087101103718 8.1205184477343479 159 164 167 2.2860271272889028 53 1648 54 1721
24217 1.4977679954212315 1.7603209771701334 12.484729512616422 244 229 210 0.42673683556522019 14 454 28 1498 3 515
3464 -1.7647751468961088 3.2200978028566216 8.2714936929312319 201 183 161 1.8569227169381672 71 2054 83 2220 81 1214 76 1105 71 908 83 637 81 952 89 1076 42 701 49 589 21 713 20 1145 57 1205 4 490 4 1844 58 1777 3 1336 59 1998
34490 2.964482946328983 1.6856058601376602 12.205391499962296 0 0 0 0.84509725865402485 30 1709 78 801
3462 2.3415974028301383 3.3091195322287121 8.197968329841407 77 68 60 2.1408210461330066 83 983 89 1069 42 1195 76 1221 71 2090 83 2095 81 2296 49 881 47 1443 87 826 87 949 70 943 70 1390 69 1279 85 885 74 976 50 886 79 2567 34 1214 19 905 48 1556 17 964 29 1174 21 942 58 2140 57 751 4 887 4 792
24214 -2.7364603053776815 2.5672762381106433 10.696591804858162 43 41 26 1.9204914836308518 60 969 64 1104 17 654 6 703 63 1059
3461 4.4663632327818927 1.0255878338183424 10.750210367110387 226 219 211 1.8506436455167297 71 515 83 374 89 400 49 418 49 542 76 1342 83 881 89 1331 82 888 75 382 47 560 65 780 59 549 70 389 16 574 69 280 85 537 40 586 53 566 30 243 11 760 54 272 72 759 54 663 10 611 23 977 16 1593 26 579 60 1999 67 683 57 1162 4 703 5 812 56 526 55 628
13734 4.38857955197349 1.7841323883167082 11.003100078091141 94 99 115 0.41492197059987024 39 2178 54 1705 36 1693 26 1905
3460 -4.3672789236200096 1.1662817213723544 12.527427135071237 110 97 85 1.7891677532196186 71 1628 80 1747 83 879 81 1836 89 901 49 1666 76 1263 65 742 16 487 38 609 86 758 77 1417 19 700 2 620 34 526 60 899 24 535 66 1208
24212 -3.5402897799077455 1.7550483882547561 13.717957398128169 8 7 3 0.83988696180884281 31 2234 29 2362 78 2369
3459 0.32116691374375411 3.4774365736710071 8.154080476588657 221 212 191 2.2584584562478276 71 2133 89 2069 42 2200 76 1460 80 2243 42 2175 71 1965 82 1905 75 2118 87 1297 70 1486 16 1384 72 2325 52 1473 86 1909 28 1549 19 2080 46 1863 58 1919 78 1667
3458 -4.3196324969901223 2.9503557875832129 13.910650805019063 7 2 0 1.8118308265870111 71 435 81 265 42 393 76 603 47 504 59 757 87 480 70 497 69 760 16 747 74 701 38 694 40 546 50 474 51 664 33 360 37 704 69 401 53 603 39 801 11 1416 52 856 35 1266 36 707 79 389 86 659 77 746 28 372 34 483 19 466 2 559 18 467 60 931 17 651 67 997 21 599 21 505 57 610 7 538
3457 4.2692593913356633 3.448155274733796 9.7453809050064759 36 31 24 1.7734406740854125 42 1037 81 1110 89 739 76 1170 82 1014 27 720 87 1039 70 1049 16 478 50 848 33 978 34 618 43 1348 80 1354 45 1510 60 978 13 1126 17 1677 46 708 67 939 21 1396 68 687 12 1039
13730 -1.0380665243246352 2.9437267838021586 12.276831098024006 53 54 38 0.95368827655121258 30 844 54 1676 73 1507
24209 3.5393589378964068 2.9690711654846571 10.106458589935222 92 88 79 0.55781388807080923 28 2060 64 1053 46 1690
3456 -2.427298094041372 1.9178818323168956 12.946563858690663 9 6 4 1.7082563840867941 81 2113 89 1714 42 704 76 2209 75 1607 59 1850 87 511 16 2304 74 1298 40 1979 77 847 41 1972 50 1805 8 549 4 1801 57 1161 57 1668 12 1312 66 419
34482 -2.9369324141481181 0.75787787774627791 12.41124229794961 110 104 88 1.8329457661667083 57 1368 56 1342
13729 8.0329971112377248 2.0637118089601998 14.431339584403759 191 176 157 2.1450454797681715 85 1765 54 1674
3454 -3.5404256836647212 1.9790019243127244 13.659251743667456 40 37 27 2.2632863818787432 81 221 76 192 83 1420 82 598 27 587 59 177 89 345 9 379 86 172 81 1473 19 481 19 946 31 572 43 588 28 1945 18 424 44 429 61 488 8 327 17 457 17 1684 13 429 63 248 46 172 1 439 67 195 78 377 62 351 57 207 12 1314
34479 9.3344992294118612 3.4599347924765933 21.765909893569276 172 161 143 0.45934509057137451 68 1799 56 1336
13726 2.8690146103233589 -0.25287034199121239 11.917598843058405 89 75 62 1.6305577657521677 42 1558 54 1665 79 1864 8 1723 32 2298 61 2325
24204 -2.2576460962213436 3.0992526590089393 8.4426132128989568 130 112 98 0.56269841459251613 18 1126 64 977 29 1088 32 2084 63 1500 62 1261
3451 0.18763466242535648 1.3044357584506021 13.502773588451269 165 160 141 1.1961245632243702 71 2134 80 1523 83 1694 76 1673 19 1786 41 1438 61 1767 14 1928
13724 8.5549743536096088 -2.7441070007644957 20.432624416763709 183 170 151 0.40084750117395629 42 1675 54 1663
24201 11.917098828002244 10.429077781207203 14.768094788531407 35 25 13 1.9852498710839286 48 1614 64 965
3448 4.1714144085764682 1.5791299158860976 10.705702601983711 178 120 46 1.4354174927293644 71 406 83 423 49 368 76 364 80 1681 83 769 81 751 89 764 82 264 82 789 75 323 47 271 27 911 65 342 59 499 84 281 84 806 87 326 87 662 70 266 70 679 69 298 69 783 16 282 85 276 85 677 74 302 74 668 50 275 40 285 40 1067 51 373 33 369 37 288 25 282 30 136 39 270 11 271 35 229 54 216 52 280 36 204 36 720 79 2332 10 353 86 526 86 829 77 740 28 1427 23 362 26 220 34 340 19 512 2 811 31 924 43 1837 44 677 45 767 8 789 64 1338 13 1017 32 2391 63 1681 15 822 1 742 21 411 68 386 58 324 58 657 73 340 24 271 20 432 78 542 57 323 57 1055 7 578 4 392 5 554 3 529 56 303 55 366
3447 3.7113365589542302 2.7492222805288264 11.214202960216463 54 43 34 1.7314202647074677 81 1387 83 1472 42 1372 49 1227 76 2275 83 2007 89 2292 49 1965 82 1315 82 1701 65 1231 87 971 69 1789 85 1361 85 2073 40 1078 37 1822 72 2126 20 1331 57 1121
34473 -0.20767780475818431 1.3631973241937894 13.610534300061541 155 149 137 0.38483619396460389 5 1569 56 1321
13720 3.9340575433074845 0.10419565626389367 11.000421105085209 81 71 61 1.1384787991289398 39 2296 54 1646 11 2095 52 1690 30 1438 72 1283
24199 2.696298578852633 4.3661784771319692 7.823159596905219 0 0 0 0.25083738879604545 19 791 60 887
3446 -2.5388908147430773 0.86460882036290321 12.566782001959732 19 17 12 1.7674782204494841 71 785 80 682 42 190 76 180 83 103 81 168 82 82 27 85 65 86 87 185 85 91 39 93 30 88 11 100 54 155 52 123 72 168 36 87 84 460 77 754 26 172 28 2132 41 178 8 1251 73 155 20 416 24 97 78 625 78 1774 57 267 55 92 22 62
34472 -1.7088382334492258 -3.206338567293336 10.566302542038875 0 0 0 1.7723087597763749 49 1583 61 1705
13719 2.5798724529554624 0.21073508932648657 10.605955920337429 104 135 164 0.1249213959628703 59 1609 54 1644
3445 -4.2856451132192444 0.82487342295487609 12.196327434654934 92 82 66 1.8970602934073455 71 44 42 24 75 39 65 29 16 27 50 27 40 26 38 20 37 29 25 30 30 26 39 13 11 22 35 20 72 27 10 38 26 20 68 25 57 61
13718 1.9422851032973727 0.21113748068061161 12.039196941405264 149 189 201 1.8027962733468648 38 1171 54 1643 72 1641 4 1357 55 1605
13717 5.3020726291391327 -0.31143636726301399 13.18340262068963 193 184 170 1.0536454103704123 70 2091 54 1637
3443 -3.2750001624549823 5.1840987869839958 14.289682091527258 187 172 149 2.4138296131689683 71 2081 76 2331
3442 1.2232993905367873 2.1088707199821406 12.0109280062437 61 61 54 1.6449377177829982 81 2138 76 2328 86 1219 29 2644 88 1572 7 1266
13714 5.8012504664986242 -0.9967984772302757 12.173336333816914 189 181 162 2.8691798306320027 54 1631 5 1686 6 1246
24193 10.273431105606955 2.2550302036291998 12.232414889112556 173 161 147 0.95250124661527646 48 908 64 875 67 527 5 562
3440 3.8418621035685412 2.274108945259822 12.703922721551756 33 27 27 1.2670650761620805 42 733 79 2357 43 1529 18 1831 63 2006 67 1002 88 1228
13712 4.7272984461756193 -0.61252041159914716 12.249419548669611 225 218 202 0.76518378645476282 39 1650 54 1614
3435 4.3034379940768837 2.6841906638223523 10.641359564312582 108 103 97 2.1529525720211482 81 1859 89 819 76 2278 47 1291 65 1223 59 493 69 2135 85 1312 40 767 86 1705 58 1280 20 1045 5 1118 3 448
34461 -2.4400654175125043 -6.7216077400139493 10.875363898481849 216 200 185 2.528661752618877 12 1028 56 1290
13708 5.6004028341891754 -0.79422295978608215 12.203056816474037 219 208 188 0.0921678130822422 87 1987 54 1604
24186 1.1285095003916452 1.9632386382832048 12.305103848027869 100 89 80 0.24349140245978579 44 1382 64 813
3433 3.5220512368040602 2.9211352876951753 12.125762389190747 13 3 2 1.7456394714920271 80 2027 76 2272 74 1186 9 520 43 2459
3432 0.35830678782118541 2.5167355383124566 8.1691967892066781 159 164 160 1.0738278386680906 83 1429 89 2263 76 2253 59 2076
13705 4.3330006376337984 0.1706546871178557 8.8075801295536511 14 14 14 0.80452018933442337 11 1139 54 1589
24184 -2.2608508021818929 1.067527494793461 11.712906803420045 0 0 0 1.8677438079936062 43 545 48 2084
13704 3.9894888709356526 0.46005221539400837 10.565060810869873 51 51 49 0.58081982293598566 27 1213 54 1588
24181 9.2746825021309611 2.9775792175266358 12.174033496247436 157 147 137 0.35631315757874976 48 1463 64 759 67 1009
3428 -2.2049731380044983 2.9678876106607475 8.6719176613532962 198 181 159 0.49258927623195131 80 1380 89 1523 76 2246 59 1758 41 1717 48 2273 3 1930
34454 -4.1312298339773648 -2.2754755594203098 10.255888824000168 0 0 0 1.4408722617765914 14 1878 63 1525 8 872
13701 5.2708014130866223 0.24118674015683048 10.79725500236728 189 182 166 1.2061597327089995 71 1716 54 1525
13700 6.5932212653081441 -2.4893787742222666 9.0152897094521638 187 174 155 0.16783719195736557 51 1652 54 1516
24178 8.6244388170699349 2.9026955321499841 12.246059626312936 162 152 140 1.0254143059569532 48 1465 64 749 4 1741 5 1856 20 1027
3425 0.77894101586451747 2.9745001629343784 9.1749599339637786 232 226 212 1.1035670484637021 49 1783 76 2229 47 1662 59 1303 87 961 85 1735 38 2359 25 1897 39 1468 52 2119 72 1977 10 1682 68 1008 57 1855
13698 -7.7949380970475746 -4.7318646768941885 15.61464835098475 189 173 157 1.804902203091016 75 2223 54 1512 73 1151
24177 3.0829097185854257 2.1263331606153244 11.993162285647582 73 64 55 0.72329444003352805 45 813 64 736 29 814 32 1631 63 697 62 849 5 1248 9 778
3424 -0.86842132169245534 2.3439877959651034 9.9182399930634908 7 4 0 2.7719159545306806 49 1919 76 2228 68 965
13697 -0.38775888104815609 -2.5126202240862958 8.8436408801151654 215 203 187 0.037762080702386416 49 1550 54 1510
13695 -1.7390259150744085 -3.8946102694050118 12.775851573138578 223 214 199 0.5077108937540733 39 1780 54 1506
3421 2.075618014203811 1.8210138068282413 10.814190994762916 95 80 72 1.695449485046636 81 1332 89 1225 76 2210
24172 3.7432226799001458 3.2134046620393804 8.8948665825340392 97 89 79 1.1291112273336461 2 563 60 612 64 683 63 617
24170 9.1850337080556308 1.7984559290190365 11.916864485915449 148 135 119 1.1243987450535582 64 655 17 542 29 529 32 783 67 389 21 368 62 617 5 401
3417 -3.5331226449345956 1.7661933308235331 13.595718406274731 77 73 62 1.6120806769317086 81 757 76 2187 27 1919 43 1311 45 1154 46 1630 62 710 7 1335
3416 2.999571150531366 2.1134516303028033 12.476985382745234 123 108 101 1.1412288858630566 81 2033 89 2214 76 2184 86 1699
13689 -0.28929330093555905 -2.9845889371609933 11.178597129599353 42 36 27 1.5228287196250327 42 838 54 1495
24168 9.430977544916697 2.2573801464866641 11.883950026541749 192 180 166 1.3296937837162248 48 606 64 617 29 656 32 949 67 355 4 671 5 424 3 365 3 1027
3415 3.8064646587121271 1.8320848368274352 10.807451122127485 178 49 30 1.1072669846165955 80 1725 76 2181 47 947 69 1455 40 1242 54 1912 52 2207 79 2658 77 2249 26 1341 43 835 41 378 44 542 67 1425 67 1547 20 994 57 1530
3413 0.31601735349258658 2.8966733267224449 13.82913143988733 62 55 46 1.3852673050405671 49 730 76 2170 47 1221 77 1301 48 1054 64 2514 67 2192 78 861
