# 3D point list with one line of data per point:
#   POINT3D_ID, X, Y, Z, R, G, B, ERROR, TRACK[] as (IMAGE_ID, POINT2D_IDX)
# Number of points: 376, mean track length: 6.2360517232497035
26751 2.0397226867953773 2.7841607994875859 8.8545188112797675 66 63 54 1.775562384089832 19 1240 33 2035 14 1255
26750 0.032192349240840711 2.53446398581884 9.1659129253620186 159 168 167 0.46100366035611023 48 1944 33 2019 14 1242
26747 4.6546954835331764 2.6651272591014568 9.7270751309676005 0 0 0 0.10797780092121226 23 921 61 1171
26746 3.8004606715114795 2.6295877393841862 11.625551014018468 105 101 97 1.5911445412026992 19 1147 33 1926 69 1182
26745 3.9617078657114857 2.3522603872076968 10.194696952607069 164 152 130 1.4738399668359552 29 1247 43 1147 33 1921
26742 4.7722519751332717 1.7243607740293601 11.309845900864781 92 102 91 1.629547512730807 49 3070 70 3109 33 1894
26736 -0.65476848311824076 0.80465832531270198 13.068468435140717 98 98 96 1.9184975293624749 32 3057 33 1754 31 2096
26732 -2.6706285632227047 0.54329852369491061 13.680417661658451 166 162 150 1.0003354173443422 42 2095 88 670 33 1675 20 434
26731 -4.6314172631437485 0.34495722546583268 12.668903376546293 0 0 0 0.78918741696276928 75 428 80 1933
26729 4.3015168130894148 0.12095279309850067 10.669664922631043 0 0 0 1.2728788843127323 32 390 64 338 46 379 33 1578
26726 2.1176784896790313 -0.81500421724538485 12.191281677166907 77 63 54 2.1121595214934721 61 476 33 1533 15 390
26724 1.3353350224079514 -3.1213644049421605 10.30255774888348 0 0 0 2.5220290274433221 59 252 88 1639 2 182
26722 -0.28613530175726676 3.0342528595874549 8.3323415395464817 80 25 1 0.11040765507755426 56 1524 33 1115
26721 -2.169432011422856 2.9921824766451732 8.1526765291410292 250 226 165 1.9232241846193328 11 1431 33 1100 14 1426
26717 -1.0617357707503219 2.7091669609626252 8.6694557549235522 157 142 121 0.24489290728600704 65 1280 33 945
26711 4.0534565294264988 2.4386484318052908 11.201935519993873 109 106 99 1.9778063410928457 29 1224 33 720
26708 3.9417193144429077 2.1253648586077891 11.567871734471424 57 52 48 1.3458476153632273 75 1388 33 694
26707 3.0379285144224029 2.0510604366562966 11.423303081469939 58 53 49 2.0991382928221993 76 2512 33 682
26706 3.0379285144224029 2.0510604366562966 11.423303081469939 58 53 49 2.0991382928221993 76 2513 33 681
26704 3.8653490266457462 1.8042041289284776 11.198960444324136 73 60 52 0.84266531767668607 28 2227 42 2285 87 1151 33 664
26691 -0.2098621568555715 0.59337330243300224 13.212248502379744 0 0 0 1.9130519774572052 11 729 85 566
26689 2.6489571567644754 0.34375441166966908 11.953672300343841 199 190 185 2.653212179813305 50 803 33 308 73 697
26687 -1.7299856820556367 -0.058271729403114411 11.407824106038255 175 175 167 0.27038319539154793 29 608 33 180 79 512
26686 -2.2197136508911091 0.0076181301523243336 11.498657361854887 190 187 170 2.6792172036946136 10 542 33 166
26682 1.6762012182310162 -0.77902117763359935 11.980303041787572 98 85 77 0.71855621208277254 34 278 86 433 33 83
26681 3.5510632725094959 -3.7557611495180034 10.475305708356791 185 176 161 0.41541871469179981 28 144 33 27
26678 2.6386640624321078 2.1826276752385638 11.538704550309262 67 61 49 1.8198076544258535 15 4499 61 4990 62 5202 63 4972
26676 -4.3937492430021914 1.7584673466432015 12.092805718948689 48 40 29 2.4590586884876706 44 4749 1 4218
26675 2.5936469719294393 0.4827143139922172 12.380219960292937 241 229 217 0.56722866972556241 88 4051 1 4203
26673 -4.3355164277415952 2.7725813663480143 11.970211623257816 15 6 2 0.4852726233807198 61 4836 1 4159
26669 3.7384651483685802 -0.43754259418945302 11.790915636661399 158 146 130 1.3342579876768446 88 3510 1 3726
26656 -0.033149895643039912 0.38655154862346164 13.346233705106094 117 110 94 2.3488691170169518 18 600 33 287 69 1980 62 800 30 591
26655 3.6953339411690602 -0.26386981051255698 11.729784506497545 187 176 156 2.9865792175265264 65 354 1 2022
26653 -1.7036172860265331 2.9534335463716781 8.6095928461189128 160 128 77 0.21409576738607078 66 1584 1 1482
26652 -0.71935694681079843 2.5400629924097964 8.9773579692934362 211 194 176 0.21295202694067694 17 1404 1 1248
26642 3.4606867670921595 -2.372578623127104 11.18722701287666 171 162 148 2.4086417907658531 2 3895 19 4424 43 4378 88 3928 1 3989 29 4626 44 4586 60 4709 18 4526 9 4273 64 4502 47 4780 46 4111 15 4203 6 3634 7 4603 31 3905
26637 2.271823882654906 -0.91524251445859217 11.999509443755475 57 50 44 1.8205386890987221 6 434 1 452 42 263 23 351 81 234 84 404 53 649 43 352 54 577 86 405 77 531 46 305 16 331 4 165 57 1566
26634 -2.8890992401203528 2.8216837029846813 8.3530993671921614 22 16 16 1.5375985836345689 18 1566 1 2601 9 2316 17 2817 61 2891 15 2658
26631 0.75292426854241223 1.346677301630868 12.332367965954969 79 70 62 1.5116489887871671 19 1013 46 2196 10 1887 65 2841 29 3148 19 3690 80 1986 44 3252 32 2211 18 2339 64 3601 61 3290 6 2111 1 2271 74 867 58 1030 14 998 62 1071 16 2366 63 2488 8 2373
26629 -1.3367718617249131 2.8372928379769169 8.3676000004324518 249 239 220 0.57768382604852042 9 3553 15 3262 1 3106 60 3639 17 3381 61 3546 6 3114 89 3613 8 3712
26628 -0.59863604029010831 2.5891248031759622 8.9466593840012756 51 59 49 1.0220830819445488 48 1996 88 2127 80 2055 29 3353 60 1566 44 1321 17 1407 6 1335 1 1251 45 2621 61 2672 15 2446 33 2016 69 1247 14 1314
26627 3.3198989394209666 -0.97093096061726247 11.90805924115733 108 103 97 0.56528225364649687 79 1692 32 318 62 416
26625 0.86709601559949712 1.1896706630038691 12.384937171619281 53 46 42 2.4257188574448798 60 991 1 940 2 664 47 1003
26624 2.2009844226312691 2.9368091191296499 8.3950774941821855 107 101 89 0.86266983884046711 1 1294 29 3320 79 2958 69 2375
26622 -2.1654852684109827 2.8643524384855406 8.257680489934577 152 127 97 1.5188917076480593 10 2991 48 3340 19 3451 32 3488 60 3019 44 3569 17 2807 45 2063 46 3274 29 4029 79 3520 61 2876 1 2605 47 3930 9 3609 15 3284 78 1999 7 3313 62 3883 30 3077 16 2786 31 2455 63 3629 8 3431
26621 3.6463350646959083 -4.7254396249618402 10.277248627593037 180 168 151 2.2560744633260716 44 1984 15 132 1 1936 18 1980 64 113
26619 -2.9959006424643668 2.5300228271868517 8.8203607469716427 105 91 72 1.7690182556439 79 1211 47 1439 46 2584 6 1467 1 1444 18 1424 62 1685 16 1357 8 1592
26618 0.47877295267585229 2.9525627169308488 8.4558367398873227 133 107 70 1.4879373889751339 1 2467 38 3272 72 3045 52 2870 59 3015 76 3308 77 3703 2 3133 80 2550 10 3527 48 3267 88 3157 37 2884 87 3484 54 3548 29 3947 19 3371 65 3117 32 3877 53 3420 60 3559 18 3361 9 3464 17 3294 43 3173 44 3486 61 3448 64 3165 6 2848 89 3637 69 2889 3 2794
26617 1.8430827003680621 2.9220217057586955 8.4797231647356988 44 43 38 1.1797691662047298 44 1265 45 720 1 1287 29 1406 61 1366 16 2547 63 1202
26607 -2.8752217517358876 2.4906710149927824 8.7632907858069586 206 190 167 1.0474019802067738 15 4464 1 4267 62 5184 63 4949
26606 -3.6531079692205153 0.25827736480219571 13.639947097051074 0 0 0 0.85611335659941612 10 4345 44 4827
26602 2.6864474011776966 0.47158075482346218 11.644433209022361 232 219 205 1.5442828380151321 44 4813 45 4059 1 4250 61 4900
26600 -0.52121017276012638 2.9801765683154451 8.6957870817005212 147 149 147 1.590901531388343 45 4072 1 4237 47 5035
26599 4.0267895530867905 2.5515196560004965 10.215175390133764 172 157 128 1.8018073491941953 9 4591 1 4236 7 4872
26596 3.5090243567137209 0.78997163064931675 11.249866658973055 124 32 33 2.0619757720323464 15 4400 1 4229 16 4752
26594 -1.8703117531905895 2.3895279777206349 14.004473964785078 6 2 1 0.8898317142368406 19 4585 1 4219
26590 0.13023458379978523 0.72202261874231233 13.136351652105025 170 156 145 1.8913148912289384 68 3038 1 4207 31 4161
26587 -0.3429669052468482 2.6397397083322196 8.836922955083077 185 170 149 1.8133555614767876 61 4859 1 4190 30 4392 63 4763
26586 -0.98053056781175751 2.3033783205965777 9.2397615504641077 50 48 35 1.9021295393685662 47 4966 1 4187 78 3487
26579 1.4243723861926954 -1.0078667157670376 11.104231937189914 220 213 195 2.6057971319736755 32 4955 31 4076 1 4168
26572 2.3426900420755787 -0.063205880779985402 12.13714960322609 240 233 227 1.6531952943888379 45 3923 25 4076 1 4123 16 4654
26544 -2.317200539481624 2.5963903765944134 8.5577655022722467 176 157 137 0.73184765926236084 15 4144 61 4617 1 3936
26539 4.6700643239520865 1.834402338913685 11.334939519879146 0 0 0 0.12457505583472725 43 4293 45 3738
26534 -4.7564553072133195 -1.4036591733990074 13.585995244040252 158 140 116 2.08305032180224 15 4067 1 3834
26525 3.3574518797397279 0.49153751116275723 11.337723885570055 212 206 192 2.1788110433834973 32 4404 43 3449 1 3738
26523 3.5025092270619633 -4.9558368271605291 10.037911418361775 0 0 0 1.4104949596429792 2 3736 17 4074 8 3925
26519 3.3924988909366718 1.7012417184582982 12.057386108130608 90 87 82 1.0452002660530517 32 4164 1 3638 16 4311
26517 -2.9711076300541306 0.56101065338181844 12.071948722114017 0 0 0 1.2218297591786866 15 3938 46 4015
26515 -2.3415291730934111 0.33718987621402086 13.424652694850829 184 176 165 1.7141622426662388 15 3448 47 4081 1 3617 18 4249 89 3926 7 3564 63 3342
26510 3.3642869253809717 0.35041510667245523 10.732897676761597 154 38 39 1.3544866638107291 15 3421 44 3701 1 3582 33 3349 7 4023 30 3636 16 4096 8 3783
26503 0.41649088778976218 -6.8608855296317497 9.8548517703331608 0 0 0 0.37806108038178143 6 3171 61 4167
26500 -1.517619393192843 2.8323160226918915 8.345153435924237 255 242 223 0.41084571012243815 61 4038 1 3496 15 3660 89 3863
26499 -2.4272387669413198 2.6453518262342204 8.49358491954691 255 247 235 0.54026471064649773 61 4052 1 3482 15 3649
26496 -1.6891227316668183 2.6732813026337792 8.6562691134373964 254 243 226 0.25443052487581413 61 4036 1 3457 15 3627
26491 -0.70752774319582912 2.57982220879614 8.9426211001995632 252 243 230 0.097176377181159457 45 3108 1 3405 89 3556
26489 0.24913583403731843 2.6678520279239812 8.9095338724225659 165 146 129 0.70269997164629849 44 3887 1 3362 16 3848
26488 -4.5783741431820468 2.3001465016178408 13.970461793610756 45 36 27 1.8160771540746574 49 3077 1 3348 65 3431 89 3003 69 2689
26486 -3.893195145443523 0.95719424526099373 13.265479471670593 0 0 0 1.7305406347209098 15 3808 43 4153
26482 -1.557986020861758 0.63059160633578659 13.279500469314128 31 32 24 2.1773479366748631 43 3880 1 3297 14 2979
26463 -2.2611260844064294 0.57557183704038661 13.694109684588506 54 47 37 1.8480817386056265 9 3732 64 2954 1 2895 46 3398
26459 -2.1768859109454013 0.45082337415429413 13.709723110555265 154 148 136 1.8729755449449479 43 2877 61 2404 1 2873 62 2586
26456 1.5856951492218128 0.18182915409962186 12.270351941489347 167 165 153 1.3384497596006348 17 3029 1 2841 89 3379
26455 3.6325901197467294 -0.02623920789233402 11.861477375278366 154 145 128 2.2456918001406851 1 2814 69 2599 10 2570 31 1085
26446 3.3377763312239037 -5.2061980267180212 9.925430672848222 0 0 0 0.30424722385104996 2 2243 46 2716
26440 -1.5885290583274363 2.8517515150218644 8.3248142166820873 142 114 86 0.45535148221274085 15 2639 1 2593 89 3213
26432 -1.7215068355906205 2.5583463580801666 8.7669590922497402 255 254 234 0.22813329132847682 61 2723 1 2409 15 2512
26430 3.7365299188584093 2.2475084019736777 11.410435879198323 0 0 0 1.6352279733075405 46 1032 88 3008
26424 0.36758709812011697 1.2140193211634334 12.3539811278557 78 71 60 1.4631945034879479 32 2207 1 2212 62 1061
26417 -4.5205389582273101 0.25920221880421546 12.757490068812317 46 45 41 2.3348401530534284 6 2022 89 2067 62 2632 18 2305
26412 0.79204758634309658 0.75651263760733767 15.766499718633224 117 109 96 0.42650160996267317 46 2812 1 2122
26409 2.7106990356355314 0.70100727302834343 10.700037393859406 145 138 122 0.076146790969428668 9 547 1 2089
26408 1.0865698269857873 0.50414934085334751 12.314985704934568 175 173 179 0.31467488616323092 6 1999 67 1615 1 2080
26406 -2.3566755979995118 0.012161229693284554 11.380323727091062 192 187 176 0.71163141874572799 15 562 1 2074
26404 2.8875405848044138 -0.19443936944969309 12.018598559086399 217 203 194 1.7695382948508271 19 2097 22 1882 1 2019 50 576 62 2351
26402 3.2908161444244373 -0.73015353346462908 11.965554485574803 0 0 0 0.50808272900472695 66 1991 68 1792
26388 -1.7857582193955972 3.0709611930874758 8.2190674405209982 194 174 147 2.3699793741221256 11 1436 1 1511
26379 0.16114835848446432 2.9877301138019283 8.477814157847618 174 150 126 1.9493852454710894 79 2326 1 1419 89 2644
26378 0.23355201281492916 3.0187009375888683 8.6784534517247209 192 168 142 1.1021734331665431 15 2568 1 1418 61 2761
26374 0.06129852483379794 2.8304954575564918 8.5522644729329151 255 254 232 0.4096602472643629 19 1385 1 1333 69 1319
26371 -1.4529479706594945 2.4904106958716801 8.9345979313902131 211 196 177 0.61660374883240021 61 1396 1 1310 89 2440
26364 -0.018342636514913486 2.6081061673688479 9.048104696589867 88 87 85 0.60833928342791654 15 1167 61 1342 1 1259
26363 -0.93326309955890241 2.5057571278680784 9.8039779763806436 39 37 24 1.1066155906741564 10 1096 1 1231
26360 3.1922629486647924 2.098622551826443 11.453029999419964 23 16 6 1.0229744075066458 18 2405 44 1053 1 1069
26359 3.4418467666710812 1.9283686021012736 11.33812533007549 206 166 102 0.520613554706152 64 906 1 1068 63 853
26357 2.0985042700200545 1.857895424430726 12.126267691834087 119 111 100 2.4854921709749509 39 1090 1 1054
26353 4.3915838915661007 1.7987828401990429 10.88471140185881 92 96 81 1.2889629983987623 17 994 1 997
26352 3.097935886036006 1.5293648268132909 12.139250273642896 70 57 51 1.4397172424505313 41 1825 46 806 79 2050 78 385
26351 1.7364593734667797 1.2923329436448658 12.072033588054596 79 65 52 1.405018127883193 17 935 47 1013 1 956 63 812
26348 1.0026489735455615 1.1806592589229721 12.313141539439288 103 89 76 0.79073777166782788 60 993 1 941
26345 -0.37763216870335709 1.124221143756897 12.943250170141154 18 27 26 1.6922571805967455 18 829 14 984 1 919 30 820
26341 -3.3639940251899514 0.40873591670922033 13.033640025257007 164 158 134 1.0402252246386792 32 2104 1 876
26340 -4.4152088833699636 0.20884712619567888 12.504527585143592 46 45 43 1.1694004195861651 6 781 1 863
26334 3.3019629042995393 0.6806131054735427 11.318917974557692 210 202 189 0.23787055919788175 61 666 16 535
26331 3.3423512252285463 0.28214763889924005 11.069215677977056 170 152 138 1.3601047744687338 46 1957 1 612 30 1598 8 2176
26330 3.3693512288687852 -0.18752127557235573 11.916419013079315 74 64 55 1.5588194185412989 1 539 62 530
26326 2.9860029549366409 -0.78066664716968637 11.951217862916307 0 0 0 1.4716453839533989 46 313 83 394
26323 3.1941469248681527 -0.80780497514144523 12.043703620699496 0 0 0 0.54856430041923776 19 395 65 337 42 1948
26320 3.39677556221192 -1.1000494830713612 11.790662945939451 223 211 195 1.3640002816047199 61 423 1 429 30 1546 15 2898
26316 3.3718919625617394 -4.693988212028251 10.142120118543604 227 209 189 1.8771601060955982 18 84 16 39
26308 0.43099229578934101 -6.4315434917178562 10.033204696084267 252 255 233 1.743120976280891 15 1886 64 2688 8 1997
26301 -4.7430240801793158 0.88110990323833949 12.25778606098428 151 135 112 3.0174911191700406 29 4667 6 3682
26299 -1.410699512274481 2.7627419233777877 8.5373175783421633 251 239 223 0.047609573124535468 2 3848 6 3594
26298 -1.3308120556927592 2.7264817583280156 8.6277560645026199 172 153 135 0.69414119370636995 18 4305 6 3591
26296 -0.08634792276488959 2.865970851043381 14.701424535966842 14 9 5 3.1298839161910879 45 3768 6 3539
26294 -5.1991932908151339 -1.7778580169030769 13.028923767480558 0 0 0 0.64828782753351044 15 4050 60 4547 61 4513
26289 0.40614356030716531 -6.685207311333726 10.069395728766713 181 166 147 3.1962416354457295 9 3641 6 3360
26288 -8.2163772471036154 1.1054078427328549 16.418914742008866 11 12 6 2.1919135370947456 68 2287 6 3019 89 3459
26283 -2.6320012105607136 2.999537922141148 8.0874031782370022 4 2 20 3.2729635106128221 11 1417 6 2493
26280 -4.7543431941977845 0.79789962325985808 11.747551048125288 162 146 123 3.5107111095533821 29 3194 6 2160
26277 3.7430595901460531 0.36486818161177448 11.898831738831673 158 150 137 1.4807239560542356 64 2800 6 1971
26272 -2.6006883007492485 2.8604507507061654 8.1700187410658778 133 139 139 1.2607766321613643 64 2560 6 1609 8 2874 30 3089
26262 -0.71768680417120034 2.9907006601096691 8.3131952112219079 195 203 205 1.2846226703962513 43 2511 9 2265 6 1588 83 2384 84 2721 51 1479 23 868 48 2158 4 2279 57 1279
26261 0.0071111608295378759 2.576601355641186 9.0323663555869746 194 206 212 0.65353121077327292 29 2597 17 1348 6 2256 44 2569 32 3207 60 2734 18 2499 9 2759 61 2625 45 2591 15 2366 1 2368 89 2398 16 2529
26260 -0.89956005734089017 2.8507312166351273 8.4351313574858207 235 230 218 0.85299566193761656 18 3907 17 3787 45 3486 46 3812 32 3982 6 3323 77 4004 79 3796 78 2897 5 2594 30 3484 62 3792
26259 3.274304951232339 1.2469021316818742 11.490474950213214 127 119 111 0.94837221329765897 79 900 9 731 6 851 44 836 32 786 64 635 46 644 61 848 1 839 89 1124 62 832 7 789 63 727
26254 1.9855789318683561 1.3681824740060866 12.249441545860602 79 68 56 1.3737370866994754 2 1798 32 2229 46 2137 6 995 44 968 80 1424 19 886 1 959 3 567 16 2275 43 2130
26252 -2.040208598480401 2.4728079264382576 8.8987148953235771 95 97 95 1.3593568091824677 43 4321 2 3828 29 4698 19 4229 80 3279 79 4102 32 4777 47 4687 60 4637 18 4456 45 3880 6 3553 9 4199 44 4519 64 4436 45 3881 78 3083 89 4074
26251 -2.9006526890253084 2.442447136196098 8.8745805475027222 77 67 47 1.9444115568165636 32 4303 47 4291 18 3837 17 3765 64 4270 9 3890 60 4053 45 3471 44 4265 46 3958 61 4018 15 3602 6 3292 1 3427 89 3802 7 4207 30 4043 16 3943 31 3366 62 4241 63 3985 8 3697
26250 2.6831133139728123 2.1429001643862007 12.657606670950337 30 29 29 1.7938166997448728 2 4021 15 4258 29 4774 61 4739 6 3753
26249 -2.5613648566645302 2.680078921441678 8.517089924437629 152 140 125 1.3987879836037183 29 3529 17 2769 9 3010 45 2781 46 3620 61 2854 6 2809 32 3994 47 3311 60 3656 15 3244 61 3571 1 2570 7 3297 62 3865 30 3555 63 2913 8 3394
26243 -2.7208732526325599 2.4426776568830078 8.8947795949104318 249 240 220 1.6908204866015319 44 4242 47 4256 6 3296 9 4067 17 4022 64 4273 60 4016 18 3840 45 3472
26239 -2.8506759471357088 0.59055335741166837 12.603325843226031 22 23 20 1.6048945402709947 18 3155 6 2663 47 3599 9 2657
26236 -0.68947162038460785 2.7720545300314985 8.6370083591255256 236 228 212 1.3950074868429174 58 4022 43 4337 10 4095 48 4028 79 4117 32 4671 47 4708 60 4460 18 4307 6 3454 46 3956 78 3270 7 4394 5 3055 47 4510 30 4004
26234 -0.48355225255770623 2.6010055580820839 8.9154964199106654 89 89 88 1.4764588463782913 76 3892 75 2773 65 3798 88 3638 79 3749 32 4234 47 4201 60 3970 18 3824 9 3828 45 3446 15 3555 6 3283 6 3073 78 2832 89 3829 5 2490 69 3350 8 3855
26227 -5.5480957667585935 1.7111924883786667 11.591007715553108 164 144 120 0.57491221792808056 9 4655 6 3889
26205 1.5813754490075911 0.10459179146433903 11.592635425222415 175 184 157 1.2633135743675104 47 4947 65 4325 6 3792
26204 0.14420620543786297 -6.429713152696042 10.142199263184818 194 177 159 1.4799608400149467 9 4449 29 4811 6 3785 7 4717
26200 1.3412656259745972 1.8741197182984228 11.965556392674591 0 0 0 1.9110689480700171 45 3943 59 3671 87 4290
26196 3.3169629592968883 -4.2430721077592874 9.9162737332147319 0 0 0 1.0890479202223922 15 4182 47 4772
26190 1.1323606040338194 2.570736070242289 13.660811722284899 76 72 61 1.3685605722058816 29 4563 47 4649 6 3692 89 4193
26189 -4.3684305862128063 1.1048206943855341 11.805857763502679 34 35 29 1.6285274114478543 29 4673 46 4276 14 3514
26188 -4.6865491341485797 1.312402189073236 13.199581545585898 2 1 1 1.9961028111082453 9 4372 6 3689 89 4183
26187 -4.235592504009114 0.8092814927807358 12.666372655127228 24 24 22 2.2512956044852683 63 4580 30 4336 15 4260
26185 -4.8888447441918155 1.0157233761511957 13.508154105531368 151 135 112 2.1473912201094669 47 4818 6 3681 89 4180 18 4578 9 4370
26180 0.20138655490201143 -4.3057641990998601 11.118210978638105 197 185 173 1.9053387741258767 29 4621 79 4283 2 3890 89 4144 69 3617
26174 -1.5852074864649128 2.5768733557484911 8.8338000791797473 255 248 230 0.75015691081472469 17 4330 6 3563 2 3829 25 3579
26173 -1.7562648019759011 2.6330000176803905 8.7080077771439051 165 146 129 0.32409717226664075 18 4303 6 3561
26167 3.3327902188274101 2.1481606607647352 12.264091886434272 75 71 62 1.9288262403043244 17 4295 48 3159 78 3063 43 3921
26164 -4.4867971184479796 0.02713992852532874 10.950120156847808 53 49 46 1.1238084454268384 6 3510 1 3614
26163 3.4614481766826359 0.22896603071463018 11.369896658998567 191 183 170 2.5909066720059686 9 4339 46 3997 6 3499 64 4332
26162 3.6033278189826272 0.065651652088241932 11.871923514368744 0 0 0 1.2392973163400181 29 4507 45 3705 79 4055
26154 -4.9824742850730335 1.0825283665726975 13.175576880550647 0 0 0 1.8116508534062152 29 4557 88 3555
26152 3.7446613155807462 -0.39538862663926244 13.264008144183924 216 201 194 2.5853753922765748 15 3922 6 3369 9 3955
26142 -5.2404448127858165 2.0418462840291562 10.803809368189716 61 51 39 1.8989782812049918 9 4051 6 3255
26138 1.2589839248024097 0.85984198599615835 11.703070806213024 177 176 182 1.1841215456272765 49 3018 6 3220
26137 -1.1545850694306543 0.60796911187210168 13.353396771910925 120 139 141 1.3869113954531365 47 4086 64 4184 87 3587 46 3878 7 4078
26136 -3.8383524384440926 0.47584136474268091 13.32164165333605 0 0 0 1.2787339093404806 15 3468 65 3730 20 3197
26110 3.2754501646552092 -4.8501215181459481 10.110011232958 228 213 190 1.9540094257201428 46 3301 88 2833 6 2905 62 3986 78 2643 33 2371
26107 -2.8099705708668981 2.9018577013095945 8.0047923831575964 182 192 193 1.4327019204283797 15 3293 17 2820 6 2870
26105 -0.6429615091351788 2.9283122744103816 8.30314002758813 195 205 206 0.42683336302188596 15 2562 6 2838 1 3061
26102 -1.0610889063408799 2.6717954335112251 8.7402110641690296 255 251 236 0.22479932731523189 32 3321 6 2782
26096 2.7505190408276268 1.5236126562705872 11.933681126813054 0 0 0 0.45128874333985891 61 2447 88 2550
26091 0.1570470956920878 1.0742789680509603 13.197189088901483 0 0 0 1.2521112595522594 29 2250 46 2862
26060 -6.3367654416086534 2.91923686329284 15.332832855174429 139 126 107 0.43665148191949221 9 3837 6 2230
26040 -2.9556591682190585 0.73180890130594067 12.3223928805123 37 37 35 1.9524610754058034 64 2160 6 2085 16 859 8 2426
26037 3.6514372717920138 0.97923930566690442 10.964942136402424 255 246 234 0.47848225148683188 17 732 29 784 47 1999 60 785 6 2073
26036 -0.024017869362935249 0.86842608053074111 13.68444831706101 85 78 68 1.4388942909654134 18 716 6 2051 8 844 45 1587
26034 -0.92764168454543372 0.7069440746693012 13.737860460831747 88 84 72 1.2769181110424823 9 682 19 2287 64 2031 45 320 69 859 8 3081
26008 -2.8395229891862948 2.927472912116059 8.0418768920908583 117 119 116 1.6115447717544018 29 2867 6 1638
26005 -2.752617166996179 2.703635179639206 8.4666700202347247 112 117 113 0.049259333126342793 46 2617 6 1558
26001 1.9677103604019399 3.1446305508094667 8.3394683714553342 34 33 28 1.2270253882714386 44 1369 6 1456 1 1347
25987 -1.5859619828186564 2.4903224925064715 8.9190684178141382 211 195 178 0.7301676228103311 44 1301 45 733 6 1303 69 1232
25986 -1.8112510182344006 2.489243789188718 8.8827524700955589 219 204 183 0.41471406365750868 15 1206 18 1355 6 1300 61 1467 1 2406 17 2616 89 2430
25985 2.1050682691038873 2.7934822264778174 8.8632476070107877 54 49 41 1.6090321659665625 45 657 79 1199 6 1284
25984 -0.031068508537961143 2.4842014173484701 9.2339878058550493 105 113 115 0.70653061426765962 70 1195 6 1258
25975 2.9581333137929398 1.9121061662378107 12.406018252679077 69 61 59 1.0016689857599765 77 1211 6 1079 70 989
25974 1.9504508689304099 1.8793690104657008 12.792196424309576 100 93 85 1.2773371844710728 85 746 6 1075
25967 1.785539540068408 1.4252774658554919 12.229432254881827 109 96 87 1.225472324535712 15 821 61 941 6 988 16 939 8 1028
25960 -5.4249624386025808 0.68151558085148423 14.023688948702029 131 118 101 1.5423003731224285 81 551 6 893
25953 -1.8962593953289009 0.63241825035176147 13.275942774659065 52 54 41 1.2322441518723908 18 2323 6 795 44 2270 89 763 62 2590
25950 -4.4723794440484808 0.21952971586137088 12.629207094452964 0 0 0 0.28310310660219784 28 704 44 2260
25947 1.4350644219620263 0.45591762506847067 9.4157220195307989 129 128 136 0.82997026208315661 12 1953 6 726
25946 -1.5783410928708987 0.27181431668071349 12.12573465744326 2 2 0 1.5524165795639746 9 669 6 687 16 2211 17 782
25945 -2.2561216161744735 0.31527205512211037 13.479881351169917 136 129 119 0.93450652173025794 2 1626 6 681 33 2495 69 763
25943 -2.3757380139333999 0.35075340829583795 13.45437389150149 194 187 177 1.8836266177855077 9 656 42 2058 6 679 89 641 46 689
25942 0.041040957026138025 0.010067833819226374 11.380680354751473 52 49 42 1.0358076737139628 29 2065 6 615 79 1785
25938 3.7021244083527529 -0.24108448250522943 10.573058875755246 15 15 13 0.89506005549226897 18 437 6 495 1 508
25936 3.4412724912473314 -0.68822362034112894 12.238274523050249 64 51 43 0.00071966660426803393 79 457 6 449
25931 0.082297179699815037 -3.8820543036357451 11.341041285651793 195 183 167 1.8692940945632162 41 140 6 221 69 314
25929 3.3809475875189778 -4.9409852875591929 10.010383386467652 108 79 63 1.6670148074291709 82 17 6 82
25928 3.3287462137263337 -4.9972046822182978 10.04803048983846 0 0 0 1.6415531168784021 18 71 46 45
25926 0.61442257674243572 -5.3667453152957236 10.332070118107323 166 148 124 0.71816728716614131 29 1852 61 61 6 65
25925 0.55493858482698255 -5.3143539466866709 10.326375518139479 106 80 81 0.95133072797918394 29 40 6 63
25923 -2.211291183063584 -0.33977080276962729 11.719058977288181 53 48 44 3.2936548745368723 60 5006 15 4504
25914 -4.5638019936996956 -0.30993401799273568 11.555283922318793 185 172 156 3.0251024814968202 17 4283 15 4089
25911 -6.0834048508591225 1.3615199017019464 15.567009452378567 76 69 59 0.36141727997703399 60 3945 15 3529
25908 -1.5778380953017364 2.6724939088086876 8.6334478038207809 145 126 111 0.6884592350318075 9 3486 15 3199
25907 1.9625024284613206 1.1519136630077604 12.948716871684296 216 208 205 1.6822846019200561 36 3452 15 2988
25906 -0.15835009534187588 0.45066743894816691 14.770375728812594 182 178 166 2.2691108425603512 19 3133 15 2985
25903 3.7661562372946022 -6.3546702063515328 9.4677038384603165 222 206 190 0.96940790344236361 44 3030 15 2851
25902 -1.7226286870410841 4.0813850938956779 14.993018186497133 213 181 132 0.37810758709688597 60 2843 15 2494
25899 6.1428111696379828 1.6058570498031663 12.178745356708561 153 143 134 0.90044155948951454 21 2345 15 2092
25898 -1.5103743210971159 2.6613986406278691 7.8034889417792197 154 123 77 1.0779777257938501 77 2609 15 1448
25894 2.3389034954459218 1.7247933281000924 11.721202557450225 0 0 0 0.17325235524309782 60 1166 70 959
25893 -0.78948243635119275 0.76127889715636188 13.53820427689551 82 81 77 0.30798138716446155 44 775 62 892
25888 -3.2635356367418011 0.28996397677686364 13.067324175267741 10 10 8 2.5374429131071525 17 4544 44 4738 47 4887 9 4359 15 4332 6 3676 89 4171 7 4486
25887 3.1407922324785384 -0.99888254745499183 11.87969017825657 116 112 102 1.9538207352938852 46 4326 61 4872 9 4562 18 4695 48 4276 65 4349 19 4601 29 4857 60 4870
25886 1.1392520283125549 2.4141135930288944 13.248894378361697 45 44 30 1.8721509780598888 65 3755 43 4175 48 3821 2 3804 18 4284 44 4197 17 4314 61 4578 60 4608 15 3966 17 4147 61 4442 88 3587 29 4564 47 4648 9 4179 64 4395 45 3765 6 3537 78 3068 78 3249 48 4000 89 4067 7 4509 62 4822 63 4566
25881 3.3459551670534737 1.9456466877957395 12.140729229528718 46 45 40 1.3969299480428263 29 4395 9 4166 60 4243 7 4498 62 4815 16 4315
25880 0.011355709392727049 0.30099008279192202 13.482961317328011 100 94 83 1.5082884520055868 2 394 60 2382 18 2217 65 1886 88 1784 77 751 29 2099 80 1917 79 2628 44 3141 17 787 45 2327 15 2062 15 2063 43 642 32 561 61 2280 6 2623 1 2078 78 1595 89 2026 7 1842 62 798 16 2214 16 2215 62 799 69 2611
25878 0.41834429079964153 2.8446070424399696 8.5990713765868971 255 247 233 0.86555977221861347 10 3482 48 2720 19 3367 79 3427 44 3422 60 3555 17 3254 15 2481 45 2643 46 3086 6 2799 1 3017 33 2766 78 1905 78 2457 89 3592 69 2851 14 2268 16 3395 8 3280
25877 -0.89532105128646067 2.839695068547746 8.4214908262500501 253 247 234 0.62736370227502714 60 2906 17 2732 46 3203 32 3420 45 2759 15 2555 65 3555 77 3264 80 2596 1 2540 8 2787
25876 3.3491979518559933 -0.55002015127054682 11.97002854167814 157 147 139 1.6255055894056805 18 3052 46 2762 15 2901 86 2949 28 2607 81 3002 87 3054 76 2835 43 3402 10 2530 2 2798 74 1831 19 3588 80 1864 32 4091 18 3607 69 2987 14 543 16 3668 7 4003 26 293
25875 -0.549417012985145 2.4978059520757356 9.0282289025962719 137 139 138 2.3546780954610615 29 3874 32 4231 9 3825 64 3695 45 3427 61 3938 15 3140 29 3296 44 2559 47 2329 17 2571 60 3523 7 3710 16 3373 69 2773 6 2251 1 2364
25874 0.30029463511366689 2.9546843654453254 8.4314210948476944 171 159 144 1.2852370016232664 2 2656 65 3113 43 3690 44 3962 17 3293 48 2770 18 3358 61 3444 15 3177 26 3724 24 2923 32 3937 1 3072 78 2514 7 3131 64 3162 5 2144 69 3184 16 3466
25873 1.2078086898896043 0.041158635414234257 11.433011172942248 65 64 62 1.5987175948484424 43 3841 88 3245 60 3811 17 3571 64 3514 45 3297 10 2547 15 2030 17 3028 46 2782 6 2595 89 2846 89 3378
25871 2.165054662619819 3.3572628800927276 8.1873943272370191 59 57 53 1.5211370307028114 46 4350 29 4872 80 3568 45 4010 30 4390 62 5016 63 4760 31 4095
25864 0.69640295614807302 1.053718406039631 12.400022330944683 186 176 165 1.888731322068981 9 2666 44 3774 70 3715 87 3952 42 3963 59 3114 25 3541 12 3937 36 4003 23 3420 13 3776 65 3735 43 3503 10 3666 88 3301 77 3828 80 2744 47 3575 60 3872 17 3629 64 3572 15 3478 1 3635 78 2737 69 3043 14 2982 3 3010 4 3599
25862 -2.9359113882987526 2.5050739093689223 8.9244597889156445 118 99 71 1.9427515277777114 61 2772 64 2462 32 3360 47 2448 18 2670
25860 0.18640786538197796 2.6009113950300371 8.9842130394824569 139 129 119 0.99835188330661162 17 1355 44 1255 15 1173 77 2494 29 3309 43 2318 47 1294 60 2738 9 2026 32 3218 45 2593 46 3037 7 2273 8 2593 8 2594
25854 -2.7269066012002998 -5.0307777436663645 10.356025198548078 220 208 192 1.1387202636320388 68 3153 15 4503
25853 -0.71369643625166967 1.7502177097339908 10.205630355693355 0 0 0 0.94970134769522385 84 3855 55 2736
25842 -2.8221981795470157 2.5350775951757236 8.8894092019065987 206 186 161 1.8129122591589444 6 3883 62 5183 9 4640 7 4915
25833 0.86533737161034863 0.30784700048386304 11.977552050342958 0 0 0 0.089458507062286419 61 4926 79 4421
25828 2.4995995378071112 1.0839560691517087 11.411087153776025 0 0 0 1.1681831341725735 17 4633 18 4750 61 4905
25825 1.735291751621397 -0.49697750808379182 11.754300274276059 240 232 221 2.323823747019294 45 4057 61 4899 15 4419
25822 -2.8287390550459155 0.90680270916744021 12.670859107379188 0 0 0 1.1325556804228347 47 4987 61 4886 15 4405
25812 2.2615374631717975 0.1306975291952566 11.957977578115914 181 185 158 0.53603912602313364 88 4028 15 4366
25811 2.280294027977138 -0.068853294927286715 11.551150283527667 196 201 204 0.23723716999738476 88 4023 15 4365
25808 -1.6197401766877011 2.3769342058811649 12.944685262731843 11 7 6 0.029492341343953496 60 4847 15 4348
25805 -0.078697249282156878 1.8420355058163298 14.020540326951556 29 25 19 1.3837804839430454 17 4464 61 4822 15 4342
25795 -4.0009796577284034 1.0844765882001761 13.803245377073392 0 0 0 0.29084332135381785 46 4268 79 4313
25789 0.18127219464427444 -4.0698759798357278 11.275272088802806 193 184 169 1.7952934684158104 43 4370 60 4701 79 4285 6 3626 32 4833 6 3716 89 4145 7 4598 69 3619 89 4226 30 4223
25780 -1.8867265186496422 2.6988164152491354 8.483201714749546 170 153 135 0.41960485864138081 64 4464 15 4148
25778 1.7064493703919297 3.258449126824507 8.5862461305106219 4 5 0 2.7254821772955848 47 4682 15 4130
25777 -4.7613031548751623 1.1543633326858234 12.799911596503117 71 67 58 0.94544568269640894 61 4584 15 4118 78 3229
25772 4.0017331225182957 1.7021691649240926 11.444216337748365 78 83 115 1.4351882295912617 45 3737 61 4416 15 4104
25767 -4.5407709031063686 -1.2298508664434058 11.719008439143792 0 0 0 1.000517837807783 17 4260 61 4704
25763 3.470137638480522 -1.7380792527439033 11.387497282944729 0 0 0 1.8575204279210578 43 4380 46 4114 15 4032
25759 4.12946685213862 2.7446132711777427 10.650993462153755 0 0 0 2.4868403336864646 44 3847 45 3767 61 4437
25756 3.3295402824006843 1.9693609968882224 12.126545174853284 89 89 81 0.57447494237446772 18 4081 61 4426 15 3953
25753 0.62348547251761699 -5.6362947993731316 10.489303820802865 0 0 0 0.57125971003113896 17 4072 47 4006
25747 3.8415727368101438 2.3565282381464243 10.837713788225999 0 0 0 1.1163662335756748 45 3611 61 3880
25746 -3.7677382545829481 1.1080695580686288 15.010819055921067 0 0 0 1.8989425307963084 39 3652 61 4572
25743 3.8877507743089361 1.3946984318813094 12.694757928376188 0 0 0 2.6840576788951456 44 4156 64 3556
25734 -2.5451232797050016 2.5170309482665756 8.9207838540737097 147 130 112 0.82950960409974606 17 3769 15 3612 1 3435
25689 1.9897595329917692 2.1149098991808901 12.890561770740073 74 71 66 1.4267034338534523 44 2419 61 3876 15 3079 1 3329 62 2661
25687 -5.8851627814159047 0.58861198942405391 13.734812915370053 173 159 146 0.28403443710921694 50 1954 15 3066
25668 3.5303195097247535 -5.1286892003472486 10.184526389436099 222 203 186 3.3042387650892437 17 2970 18 3018 1 2786
25639 -1.0686589005630376 2.6638890745639072 8.7161777926369552 253 252 234 0.60004602269748164 44 3461 15 2439 89 3160
25635 -1.7350415227881397 2.4464262999043727 9.0166375500830238 187 198 200 0.24247357299628272 32 3240 15 2406 16 2659
25633 2.0236143684335559 3.1114677542033569 8.3713360089177193 0 0 0 1.961123713857136 45 2652 61 1369
25630 1.7500746356303545 2.7890804017789623 8.4830977778110839 0 0 0 1.3997301166810927 17 3224 47 1250
25629 4.0394126465855047 2.9820398048086076 10.176295346749825 48 41 26 0.027262725374669811 19 2508 15 2318
25628 4.5189752967744257 2.9219182455951804 9.4408661766895552 0 0 0 2.3670565561432415 43 3012 47 2275
25627 4.6955894242935541 2.9904708545851797 9.7181975814530936 0 0 0 1.3188504521894466 32 2336 47 2273
25626 3.8375456572196884 2.6641963560172961 9.1441977336226135 106 99 83 0.39326136981952459 44 2492 15 2300
25622 4.0601332857853141 2.5756890467799609 10.014507489759836 247 237 212 0.56273898679835488 12 3127 46 2974 15 2275
25620 3.0897982912393576 2.1215864171522325 11.652048258477018 12 7 1 2.5754637187327964 18 1047 15 2229 1 2276 89 2298
25616 -4.3748508376500963 0.38717031310946032 12.537953323133012 0 0 0 1.7263483138402824 17 3161 65 745
25608 -4.6490031070665507 0.23553360561056602 12.631933293600328 104 93 73 2.2958594294331975 76 1694 88 656 7 2050 68 544
25603 -0.28010472444390655 0.63948667732959785 12.193182102105943 0 0 0 0.62583027952077064 22 1984 34 1749
25602 -1.1856446925514865 0.53675812497095798 13.431281773714938 184 184 176 1.2950986360800163 45 2408 61 895 64 2910 15 2119 1 2115
25601 -1.3462842370814478 0.28423209896784485 12.030656197497885 192 186 172 1.3479686993387956 17 2272 18 2212 15 2116
25600 -5.188843937039012 -0.26489285035523968 14.703006475241231 174 160 149 0.62019842430021355 17 851 18 3117 15 2101
25598 3.8051893254365532 0.98576808300152219 10.739678370058876 204 195 183 1.2789902337590731 46 2829 15 2091 16 604
25592 -8.0036612438171435 -20.264067707699258 152.51381037426287 167 150 130 3.7426499251660506 36 1951 15 1964
25590 0.23623612167399843 -3.6398662186084585 11.648852912781733 163 154 139 2.0228707158776644 17 2089 64 2726 15 1947
25586 3.6053066734004555 -4.6899489746766445 10.143624820276568 221 208 192 0.34521283345164633 44 3065 15 1912
25582 0.34011031953280441 -6.0651920062614044 9.9800023332902423 255 253 234 0.013315166326634122 46 2702 15 1893
25580 5.3945367289536623 -6.5056448075418958 9.4055628989585589 76 76 71 0.84026508262832977 44 1948 15 1885
25579 3.6879379698025843 -6.4905701372653297 9.2415265713181736 52 45 36 0.92102802729798694 66 42 15 1881
25577 -1.8909901978075827 3.0256334837067889 8.0017991900398702 251 242 227 2.1625543383080092 74 1445 15 1540
25570 -1.518558401451104 2.861473909742585 8.3445603278900773 171 142 98 1.0195109305126226 9 2299 19 1520 16 1399
25564 2.2153720602091025 3.1943026335078866 8.2784068504337522 43 39 27 2.578183435234445 18 1312 61 1376 15 1261
25559 -1.8543699484790335 2.3942950120289481 9.0926068701496963 86 92 88 0.91203520867712418 47 2357 61 1387 15 1200 78 483
25550 4.04545910646429 3.163737545200906 10.503077849023814 0 0 0 1.0086855864073467 9 1990 17 1274
25548 4.2767192713171811 2.6944098228008095 10.028185209441478 240 228 202 2.0387833034145335 40 1379 15 1064 16 1041
25545 4.0487340735757371 2.4711709196574811 10.163927804622741 201 186 157 2.2309596142693149 13 1185 15 1023
25541 -5.0992603083586587 0.75935415669502659 14.366472018199801 82 69 50 0.82831974414455878 60 1270 15 975 62 2722
25536 4.0624971359729045 2.0646003683782332 10.408795603240053 91 98 82 1.3420585436486352 44 1069 61 2506 1 2290 62 2567 16 2394
25533 0.85009183711212499 1.505909764098279 11.954289247125354 69 69 57 1.0202062261494875 10 1935 61 2492 70 2589 15 913
25527 2.6325708786085102 1.424301269151359 12.345898838952913 78 65 56 2.7060575836709693 2 707 87 2107 3 576
25522 -0.52080217259916828 0.83234571923288425 12.509385921854269 56 53 48 0.99717971396479876 44 789 61 911 15 785
25520 -0.94276027771399906 0.967579655142488 13.181130355134158 12 19 17 0.84750819232880592 17 1046 15 782 1 911 89 915 62 2599
25510 -2.1800359630207149 0.3776872892106049 13.862980510192214 172 168 156 1.1715750432341114 32 2111 15 650 1 2110
25508 3.3399034626502715 0.82394208401576874 11.455551185340088 206 199 191 1.572481352661723 60 769 61 2304 15 596 16 3714
25503 3.785456087152133 -0.14039064172931065 10.6231774581916 34 33 31 0.86512374804885139 29 2037 44 406 15 452 6 532
25498 3.4070352822979921 -1.8114867418262139 11.478812081457905 226 217 200 1.1437396975370018 43 298 15 308 30 281 60 426
25494 3.3599873689082642 -3.4040962395311998 10.606842194954972 232 223 208 0.31685859252720761 17 232 15 211
25492 3.6303838436791476 -3.7791815268556155 10.596271140828462 227 214 197 1.1341311149667186 44 181 15 173 16 192
25490 0.064062839903299487 -4.4367018563645173 9.4801161974324248 0 0 0 1.5690408277414696 45 1334 64 2707
25488 3.2957872384100977 -5.1112954967281174 9.7022952298684082 238 223 204 2.1175311753533683 18 1961 61 2059 6 2547
25477 0.30849725009372247 0.33930720395553954 12.922976745841698 163 152 146 0.15781231464814932 61 4535 78 3201
25464 -0.044633716781701575 3.1718603599741955 12.202622246057995 29 32 15 0.30165705746064619 17 3716 61 3930
25462 1.7751764790125577 1.0778230746200301 11.86521719796321 211 202 195 3.5042713393124822 66 3606 61 3805
25461 0.79426572218748714 4.3205230111990627 6.5805373637886397 0 0 0 2.0376602933986074 32 4050 43 3793
25460 2.1495058396583886 2.9180771082340837 8.5471143499546276 48 41 31 1.2065110834484474 19 3787 15 3563
25458 3.8357172252976617 -0.56065783469591146 13.14827293288165 182 171 169 1.3847620344234652 61 3099 15 401 47 464 6 484 89 1915
25457 3.4443998965126594 -5.2980625467451734 10.011746962816282 208 192 176 0.92736536076895759 60 3207 61 3064 29 2908 9 2424 7 3452
25455 0.43870615685177805 -6.1803403076038332 10.187401342366952 163 148 131 1.8610728218331865 45 1302 61 3059 6 52 7 3449 62 4372 30 3598 63 4115
25448 0.59721332543095362 -5.2254988301254457 10.386051531164865 200 187 168 1.1212658587455668 29 1854 61 2064
25438 4.8629345700666287 1.4680539524943892 11.423412739707766 171 162 157 1.6883758998231964 17 832 61 854
25434 1.3805461603140792 -1.0271271124976977 11.20425741398612 127 121 109 2.2061091137123889 46 3657 88 3702 2 3742 60 4173 78 3167 6 3175 88 3505 89 3696
25433 -3.3896867119253153 0.50363263600445674 13.143396478722982 78 73 62 1.6807240384043109 18 4260 61 4242 2 2883 10 3639 15 3785 78 2231 65 3731
25427 0.077834633241685103 2.7620868346005087 8.7159413122632063 158 140 126 0.68756327747429669 88 3118 32 3867 61 3433 44 3418 32 3276 7 3109
25421 3.3249596670966768 0.23808153562537748 10.925064679829207 114 108 95 1.6691332442072975 2 1581 32 2954 76 444 87 1921 65 474 43 521 19 578 45 1446 29 529 64 385 61 2239 69 809
25420 -0.10606646297164457 2.9781733983753162 8.3378978747796744 182 135 75 0.98489081872993656 43 3740 88 3169 18 3417 65 3104 80 2609 60 3604 44 3477 17 3346 61 3497 47 3222 64 3218 46 3555 15 3225 6 3125 77 3697 1 3067 78 2545 89 3631 5 2201 16 3933
25415 -2.596049995676645 2.6018906907713255 8.6488943585560651 202 186 170 1.0633325714338262 44 3976 60 3622 17 3357 45 3177 61 3516 19 3826 32 4306 47 3860 15 3242 6 3110 1 3084
25413 4.0151905721743892 -0.085320311940695254 10.62007079263647 61 58 57 2.0868133528770003 2 3573 80 2993 44 4108 29 4092 60 4181 9 3673 17 3903 61 4188 1 3563 78 3007 5 2689
25408 -0.042476228200500489 0.76566403473206934 13.612322756617642 144 137 120 1.7085709510810463 88 708 18 714 61 907 77 910 65 658 48 480 80 485 19 2227 32 2131 60 2450 9 1791 17 2321 64 713 6 812 1 2123 89 2087 69 867 62 2522 30 1769 8 2238
25405 -1.4371761362165703 2.7312118425779306 8.5280710050186226 165 148 131 1.5009667689619159 17 1549 64 1320 61 1591 44 3528 47 3278 18 3402 9 2985 10 2209 65 2322 48 2136 29 3490 43 3146 79 2301 32 1450 2 2018 60 2876 1 1392 8 1619
25402 3.3272410352184227 -0.97980624545077033 11.869042840138526 163 153 139 2.0942525476332694 48 1522 2 1532 60 480 32 2923 47 1817 9 1605 17 2111 46 1863 61 422 65 336 88 427 77 488 79 410 18 366 7 1724 30 1547
25393 3.1513899860020853 1.7526751270049439 12.055719302915639 0 0 0 1.5344688822141708 46 4415 64 4801 63 4956
25392 4.4579891061944812 0.84412879487172421 11.017447454223827 203 195 184 0.60215535125539699 17 4700 18 4786 14 3806
25390 4.2555728720896351 4.1626962004693606 9.4205670065429583 0 0 0 2.2423577563817911 32 5031 44 4833
25388 2.3841260759507792 9.9278469411070258 17.231947616654374 64 54 42 2.0949207643434447 18 4768 61 4943
25369 -4.1614439874653151 0.0015364257098984711 13.069405774686665 55 54 50 3.4233230855586876 88 3995 61 4850
25354 -1.9170217523365791 2.9024515245061742 8.2743256568868038 178 145 92 1.2238938315171606 45 3982 46 4321 30 4406 62 5030 8 4364
25350 -3.3367534885889136 0.88423599737256287 12.764556827077838 64 64 52 1.5960730831148944 46 4157 61 4734 7 4682
25346 -5.1431712809841175 -1.1821116293804215 13.105329813398749 190 174 161 1.6085571205404523 9 4336 60 4747 7 4657
25337 0.26101898771739251 -4.6226340734492481 11.100582701745013 196 183 167 0.69214691565730213 29 4620 61 4659
25316 6.7497571198611288 -1.9229259724678847 10.486131360305039 205 191 178 2.0644741297220408 18 4355 61 4499
25306 4.2442876090924084 2.8950040614454147 10.74480751493949 0 0 0 2.1229107879832898 45 3617 47 4470
25301 -3.9789605219602393 0.81346566971625178 13.06599015896583 72 71 66 1.6949801842915326 44 4623 46 4030 29 4542 61 4432 15 3807 14 3509
25299 6.8172517652435722 0.83068314539557098 12.467547966698685 0 0 0 0.61268130536115695 50 3810 60 4392
25295 3.9920739004780628 -0.23846090916522136 10.64505284631322 237 230 220 2.161511910174613 45 3695 46 3663 61 4394 30 2462
25288 -1.8178865335602945 2.5122927588425603 8.9981148433892226 94 97 93 0.42292784892899365 45 3461 61 4304 15 3836
25284 1.9958009867336095 2.8084748914634869 8.4581834261768183 103 96 86 2.1495032657246305 32 4480 61 4277 31 1439
25283 -4.7115717136958315 1.0360635489432404 13.249342546811947 74 71 62 0.11340544044792239 17 3694 61 4270
25275 4.6720810819782068 2.1331648967419095 11.79547551225521 114 111 104 2.1052113142366098 45 3371 61 4236 15 3794 7 4322 8 3967
25272 -2.1418048103397416 0.16759560422499567 13.423154667967125 100 93 83 1.3243660890708775 17 3945 61 4215 15 3449
25269 0.23578163595570073 -3.7609363031810115 11.425423776434521 0 0 0 2.6362586367307292 46 3847 65 3286
25261 -2.0600576930769603 2.8272357472433511 8.2684241365919302 255 248 237 0.57327865032904868 17 3821 61 4057 15 3672 1 3487
25260 -2.1194214185120139 2.8462059072249803 8.2536793945787377 156 130 90 0.97676976803659699 9 3925 61 4056 16 3993
25259 -0.030080753766166139 3.3806019673018635 10.745463557266664 197 182 165 1.4385484438166496 32 4267 61 4003
25258 -1.0870489446278153 2.7532414673949299 8.5550621883223403 252 243 228 0.21643160134790326 60 4035 61 4001 44 3951
25252 1.9519394795089098 2.9425196910582216 8.5141482230141854 0 0 0 0.14595064431034122 46 3765 64 4033
25251 2.0207773191109957 2.7429881837706431 8.7186484404126894 0 0 0 0.88798594540181175 44 2545 47 3042
25250 0.4067577060358642 2.5566707325286773 9.0883626195708498 0 0 0 0.31441134657236564 45 3416 46 3755 8 3844
25248 4.7261978991207183 2.9512363290280907 9.893067189440881 112 106 90 2.3815170046201657 10 3412 45 3056 61 3899
25247 -3.3736842376017444 1.1798836652778204 13.486715443261266 14 14 14 0.011669318178285228 47 3644 61 3892
25242 -4.6896276699818324 0.51625674264993415 13.512421241307674 140 125 106 1.0234305428931458 17 3664 61 3871
25239 -1.7413053920427897 0.75701635033892067 13.230028393706004 0 0 0 0.0076722461807159689 46 3414 48 3104
25233 0.7601515807713608 0.087020392332511923 12.211925078825292 242 238 235 0.1380182649017711 61 3767 78 2685
25232 8.2958896421755064 0.54193518573375432 11.984789494039532 221 211 199 0.64833023250536082 64 2751 61 3751 62 3400 4 2527
25227 3.3482868349321362 -4.8691777360055237 10.063465601975015 0 0 0 1.2303916064340064 17 3528 48 3428 15 3382
25222 2.8408812429965504 10.300254898716151 17.379082272421009 33 27 15 1.5284334291911086 18 3490 61 3628
25217 -0.95870369154100132 2.9070283256106051 8.2700308681635661 116 120 121 0.39976186688970472 80 2598 61 3550
25216 -1.4371519398880064 2.8345666388295512 8.3605170318187305 253 248 232 0.45867559811533642 9 3554 61 3544 6 3142 89 3610
25215 0.93865278353100579 3.8584253424838608 10.693981398481681 181 136 71 0.10976965249487083 32 3933 61 3496
25214 -0.2679856416611166 2.898795852599489 8.4488491262630152 155 113 55 1.4064003810013825 9 2921 61 3491 30 3456 63 3534 8 3695
25213 0.41612433725076531 2.8463713481316146 8.5985469241451167 254 252 245 0.7226938949685997 9 3461 64 3125 61 3442 7 3123 62 2867 30 2837 31 2268 63 2699
25212 0.28623707479137916 2.8420427083871354 8.5919359627289964 168 151 135 0.87462926859463064 77 3639 61 3438 89 3854 7 3119
25206 -0.65829071763661384 2.4512679494919025 9.1692732351889905 252 244 231 0.29468621704258707 32 3826 61 3392 44 3878 1 2981
25203 0.56335694047058893 2.5081805749240522 13.412569310592202 11 7 0 1.814292278163933 60 2646 61 3363
25202 -5.2578385164049477 0.99828127987493664 14.124076774458011 133 117 100 0.76974491300663372 44 3299 61 3356 15 3087
25200 4.5365845026696343 2.9047245490663469 9.9211873758192688 112 105 87 0.41683849826370895 18 3758 14 3038 30 2712
25199 4.0160778503508929 2.7396505207536559 9.5530722998335929 110 103 85 0.18428773395205819 44 3328 61 3348
25198 -4.601410955074738 0.89731238465220775 12.080272259140024 71 72 66 0.54091295613489732 9 2724 7 2966
25196 -0.0048983666131432431 1.829323851371196 14.187757697038816 29 26 17 1.6764405363745971 17 2439 45 1701 61 3316 6 1067
25195 -4.4248802631713477 0.57950016461992937 12.6643406403028 0 0 0 0.76158308725806734 29 2289 44 2334
25192 0.89096485937170022 1.5312732377326888 12.526584147745099 13 12 7 1.0524163311377772 46 2907 61 3292
25188 -0.45354302424214504 0.79447572357431895 13.718699829258762 127 123 114 1.3077015712472264 17 3095 20 2252 19 3166 63 3349
25186 -2.4172405579137171 0.34582778672075448 13.631916299842571 199 195 184 1.4157298764279549 87 2622 61 3235 69 2604 14 1921 34 1728
25168 -2.2292682208304595 2.9066700292378798 8.074402478980204 203 216 212 0.18622182298070836 9 3059 61 2901 15 2671
